# .PCD v0.7 - Point Cloud Data file format
VERSION 0.7
FIELDS x y z
SIZE 4 4 4
TYPE F F F
COUNT 1 1 1
WIDTH 1265
HEIGHT 1
VIEWPOINT 0 0 0 1 0 0 0
POINTS 1265
DATA ascii
2.479995107 3.71569579 0.4281098996
-4.340219686 3.006360586 0.8461178764
-0.6910243112 -3.53533587 3.327619489
1.00496014 -1.907389953 -0.3700792835
3.433474102 -3.681387443 0.1848970221
1.534048725 1.754492028 4.092040421
3.000973265 1.522836241 4.48018592
2.29610315 1.531200919 0.1762541969
-4.57108613 -1.113254142 2.33098303
3.335821316 -1.756336608 3.530368318
1.204425528 3.522435167 0.1637619871
-3.410644193 -2.830885237 2.843640347
-0.6477749058 -1.546682974 -0.4009880614
-4.014131265 -3.195763106 0.6099568407
1.696596898 4.45546816 1.953081434
-2.742631721 4.175580561 -0.5086739803
-0.853716108 -3.206291545 -8.974423731e-06
-2.961218873 4.288614727 3.39822555
-0.5835886269 4.677451435 0.504531468
1.211980288 4.332522416 2.965523538
-0.9034817712 3.183704529 3.581774266
-1.894417151 2.95044683 3.712266654
-0.9164425198 -1.528597196 2.865822742
-1.881405071 -3.728752114 -0.02043017558
3.391393337 0.3991399441 2.292545966
-4.55083781 1.494771479 1.888412363
-4.237274668 1.18180131 0.2900549078
0.01314819545 4.172615099 -0.002486709581
3.048504628 -3.550507584 2.314753468
1.853515567 -1.750724829 -0.2098084217
0.8921961211 -2.434492609 3.706300453
0.02117780424 3.251854284 4.110368403
-3.050970656 -3.296444915 2.893919401
-3.02289095 1.257726195 -0.005772534861
3.507715349 -2.841971707 2.126448081
-1.622023412 4.406653661 0.5656734472
-4.362295181 0.8994852772 0.9345010424
-0.9295329833 -1.494026281 2.924704327
-1.327449111 0.5164084623 -0.5918716252
-0.4376625264 0.5670682896 -0.1734855837
-2.55754509 -1.705120061 3.13881601
-2.624726403 3.827409324 3.684664283
0.06816582317 1.543281498 3.940880829
3.765266438 -1.392376615 0.8735007321
-2.570421899 -3.147915684 2.994203078
3.597086317 -1.458558023 1.671018793
-2.510869541 4.440840195 1.022672053
2.72556938 4.302537913 4.406478682
-4.549304547 3.582637446 1.990308271
-4.262593497 -2.83627519 0.3848224397
2.770882076 -1.432168426 0.7751266879
-0.7953767621 0.05414896746 3.609116178
-0.675071494 0.8583433756 0.4856946729
-1.929921138 1.090046019 3.523866839
3.137517931 0.5387562728 4.322202666
-4.412520683 -3.304943635 0.9526324458
-1.434595176 1.150002269 -0.5422587462
-4.555724326 -0.02038983745 1.94000543
-3.154547493 -2.854637133 2.919292084
-3.488435905 4.649585382 0.6398615069
1.4191746 2.719493354 0.1342901115
-2.651328592 -3.506796516 2.950409979
3.093412727 0.1908773829 3.894502057
3.105123575 1.77740803 3.828873413
-4.134725902 -0.02963061135 -0.4303595
-4.508847544 -3.874513199 1.455325012
-3.045362545 -3.192153451 2.883100734
1.532398708 0.9297202386 -0.02927202885
-3.670267215 2.390552624 3.165030254
-4.349188645 -1.472070534 0.6139348712
3.232138622 -1.080264795 2.946605792
3.236213287 0.7052304869 3.637766003
-0.2644741056 2.624348575 -0.1690940201
-0.0211314725 1.742024109 0.1326373387
0.7790428237 4.262516878 2.889042957
-4.31709021 1.886379374 0.8353270403
2.794132649 -3.988797564 3.21232893
-3.137144967 4.686668567 -0.2918189659
2.946879141 -2.927631206 -0.1103687501
2.903698483 2.531894239 4.554747578
0.5872129502 -1.743301226 3.736571501
-2.731779748 4.272154379 -0.4957789054
0.5206276233 4.336123515 0.5645928085
0.1452187495 4.580799615 1.5684956
-3.681208399 0.8529914388 3.141428109
-0.6673461174 4.035815285 4.071532063
-1.446360057 1.547534426 -0.5203559063
-1.893351564 4.431736024 2.664559216
3.274106669 -1.075097395 2.320556081
-2.47264971 4.235472396 3.325140724
3.03257241 0.2077010154 4.274835651
-3.840846886 0.03971455325 -0.1515560544
2.660734536 4.265792688 4.693406561
-0.935522047 0.7223619195 -0.5236937569
2.697743994 -3.772141436 2.074873689
2.176299556 -3.566394364 0.05163251195
-4.508686311 -3.890056166 1.987410895
-3.377776596 2.63815388 -0.2183146846
-4.464851791 0.990144811 3.031059112
2.285759998 3.821804397 0.4109394228
1.299821095 4.017650277 4.410316299
-4.600476601 -2.923020403 1.868746304
-0.2474586362 -3.655888765 0.6032453499
3.04576948 2.067810997 4.141654184
-4.460815846 4.033467076 1.627068921
3.498392296 0.01509555857 2.415661885
-3.350641667 4.276299342 3.182083014
-3.659196288 0.7924162153 3.002662259
-2.380986329 4.473776595 0.8498331856
-4.222514894 -3.007216813 2.696676919
1.027544774 4.43305797 1.113344638
-1.546491084 4.13569479 -0.2912605188
-3.64627569 -3.668400012 2.253792129
-3.121725592 2.476098616 -0.7390755085
-0.2182208418 -2.070773585 -0.5276684759
2.976497729 3.219558903 4.637512159
3.324049815 -1.19977344 2.55266879
1.08984964 -3.65188641 3.642670782
2.401657714 4.361820656 1.156963092
-0.5781484185 3.946041298 4.05958946
3.406585029 -2.908534277 0.4502329553
-0.4526000353 -2.403364966 -0.05552189644
-2.415099266 -1.151809623 -0.8178954406
-3.898691243 -3.821759862 0.9834707249
-2.380011701 4.63960721 2.433425068
-4.148214788 -1.704061316 2.830621323
3.204334988 -0.3638104843 1.783310829
2.123368895 -0.5578889439 -0.04665090592
-0.4706165722 4.597450962 1.555243504
1.717106675 -3.72312545 1.486300768
2.490115699 2.917133662 0.3601400571
-1.029778956 1.634327281 -0.4519921681
3.009781736 3.000689049 4.414825681
3.471037922 -2.432354635 0.06386200357
3.432131306 0.2170446894 2.713606697
3.757558295 -1.840583553 0.8460204633
-3.451020576 -3.809006256 0.7855145944
2.59946377 1.827802741 4.435247109
-1.623783781 1.850634746 -0.5152573744
-3.192841831 2.573159908 3.43433237
0.6635905946 1.264498624 0.7610788682
-2.598159369 1.361920526 3.418693835
3.111819944 -0.2646244714 4.334758653
3.3230178 0.4517956318 3.319318987
-1.897333154 -0.5257133901 -0.803309217
-2.203365825 1.676956396 3.509653008
1.386786443 -3.51361249 -0.4573599054
-0.947870446 -1.687563387 0.2478293822
-1.891305015 -1.514497796 3.27475263
-0.2505204082 -2.460116752 -0.529871161
-0.7485810264 -1.592558695 3.242697756
3.267987812 -3.682056697 3.212593971
3.434641555 3.463799849 1.065277088
-3.891451249 4.47066723 -0.4057351365
1.813010654 -1.906266133 3.772177447
3.601137702 0.5940738829 0.3745253855
-0.004087076894 -2.035722909 3.596248383
3.510516805 -3.291144877 2.178730896
3.200575583 1.226945098 3.616943489
-3.69287649 -0.5385620886 2.877566083
-4.144598337 4.56222985 1.423722827
-4.488965149 1.708990802 1.625588181
-3.42611173 3.76457113 -0.1508343904
-2.853597559 -3.506051113 -1.219851005
3.048464895 -3.648843947 3.987311735
-1.836394322 -3.956871871 2.396529933
3.371142592 -2.722177871 0.5678420952
0.8532022546 -0.8337810037 3.860481717
-0.3625604326 -2.59461258 -0.239883968
0.2537847904 -0.6402387899 3.759093501
-4.187136967 -0.6273035644 -0.1054991227
-0.2635349906 2.436636735 -0.2037076088
3.023202124 -2.829733345 4.048957091
-0.5960499183 -3.709148871 1.234855483
-3.707199041 3.775079177 -0.1773137756
-0.7374705389 -2.585319912 3.052672048
2.023977177 0.4382644437 0.03063130657
-3.802974912 3.707732243 3.390840462
-4.086426453 -3.262956905 -0.1049578166
3.511359704 1.03093835 2.441660883
3.050955394 -3.142338679 -0.09984348417
3.85748889 -0.2088654845 0.4859412822
3.636225537 3.384504711 2.024758239
3.352900732 2.336623049 2.800456621
-4.539991506 1.602959511 1.996575453
-2.307593929 2.28177612 3.558816292
-0.599265057 -2.138913737 0.3198666273
3.085137307 4.415255304 3.244734494
-3.709085653 3.46637259 -0.611730008
2.414412039 -3.640530177 0.9082648546
0.8018917634 4.367502719 2.90164258
0.4864428726 4.688795413 0.3041878459
-1.04865814 -3.478079399 -0.4843581253
3.064853555 3.540714851 4.183059519
3.530201805 -2.633729424 1.834829886
2.042915903 -0.239482308 -0.03827463573
1.636884391 -0.6563461834 -0.1486880842
-1.632329233 3.310808003 -0.3878146527
-3.357312176 4.34847159 2.590521538
3.195741288 4.432466024 1.513481065
-0.9725562759 4.576027496 1.452569714
-3.093040068 -3.19275552 -0.5469922038
-1.289831379 -3.910315023 2.70149152
-2.670701726 -2.99380135 -1.054187836
-1.131641479 3.054276595 3.720181882
-1.770359888 -3.870309815 1.513736301
-2.588504635 0.4609436332 -0.8438389281
3.463544553 3.443877297 1.159865954
0.2436196734 1.05339147 3.91383691
2.44256947 -1.643385061 -0.1021239009
3.142612257 0.44410449 4.303616891
-4.64030803 2.836742026 2.620604286
1.198049336 3.045646515 4.293732922
-2.755756744 -0.9279781756 -0.3612947013
-0.09012336997 -3.165571585 3.462344538
-0.3910065988 4.538459704 -0.01277503233
1.793775347 4.224761828 3.386467797
-2.797497748 2.147895909 -0.7344650415
3.345268605 -0.7506943594 3.012106608
2.09680657 0.9183060884 0.1061427953
2.853332036 2.814075069 4.23143924
3.692833273 -1.644884432 0.4411010426
2.165482854 -3.344365903 3.865049476
-1.780933048 -2.526039751 -0.9856741312
-0.256181252 -3.700226153 1.101816069
0.5795680158 -3.044704156 -0.5493179272
-4.630375671 1.33457223 2.369137539
-2.465177413 0.9371757088 -0.1877944071
2.483865963 3.615292245 0.4299969924
0.08607179137 1.81144105 -0.02189708949
3.256431617 3.763238338 0.5799188059
3.399032253 2.679797886 0.8935075778
-2.405614874 0.8662018476 3.410181483
-1.499018565 -3.043484796 3.22315391
3.362688888 -2.684675017 3.130808994
-0.8837532463 -3.091081271 0.1039989097
2.988867983 1.823889969 0.3490516765
2.638251723 -2.541795042 4.003669853
-3.679705366 3.930515915 3.433770677
-0.9211664506 -3.73082343 0.2386372911
-0.1294605494 -0.547903742 -0.4786978038
0.2511349688 3.042110287 0.4600569486
3.488328572 2.649651468 1.71345388
1.158795364 0.2955803424 0.2413279833
-1.977426589 -1.71531544 3.258015965
-3.054786136 -1.509653784 3.054738507
3.299584949 -2.663189333 1.343906413
-4.590762459 4.269006336 2.464877073
2.079274679 -3.95556257 2.66494639
2.370912978 -2.628118968 -0.1938613642
3.499730644 -2.692658268 2.01246432
1.348710981 4.384571036 1.042198692
-0.4865997517 -4.032304257 3.286511416
3.509420318 0.01221398234 0.272773144
-0.631844963 4.639970566 0.1949117629
-0.8277383912 1.248101099 0.3548826499
-2.693170725 0.6827960286 -0.2812273794
-2.708413063 1.761880902 3.438380115
-1.343967545 1.246058 -0.5397988248
0.4445165849 3.236728646 4.17118044
-2.317544879 4.360169249 0.01995062562
-3.508296576 0.7993896302 3.002246197
-2.044242381 3.354143367 3.7257249
-0.7531601206 4.372912808 3.412935677
0.300961192 -3.526889911 -0.6430151479
-0.3925077538 -2.236546519 3.491249072
-1.406901235 -3.031675537 -0.9355800677
2.758142784 4.484568987 2.677476718
2.364675084 -3.83510972 3.847622758
-3.424417622 -1.959928919 2.949277597
1.511938679 1.74282832 4.219511342
0.3190316922 -3.61722216 0.2078145912
-4.561117229 -0.5088357552 1.874785898
-1.226825995 0.8461861953 -0.5619494885
3.293489153 3.609259686 0.5939535988
3.074437208 2.541470576 0.4147739416
3.251915468 -1.484024509 2.027023691
-0.8405642118 -3.603088239 -0.1477648439
1.352182692 -3.964816224 2.820985702
3.36230741 -3.32954338 2.863285741
0.01140209863 4.032775542 0.01480159424
-0.7173091693 1.064453103 3.759733448
-4.103256846 3.752745407 0.2406047245
2.593606281 -3.555281334 0.01435537912
1.032184813 1.917961713 0.7489243516
3.424147615 -2.683346314 0.279097069
-1.972143191 -3.595330047 -1.056993681
1.169459787 0.8609944732 -0.01013132161
2.581469806 4.424752851 0.537513071
0.8744949535 -1.926986552 -0.4040021472
-0.825709763 -0.6624106327 3.102350798
-4.444408768 1.372909231 3.055330776
-2.920192364 3.642361484 -0.579608568
-4.137775637 4.221446467 0.4154887941
0.2967048416 4.490915824 2.312487831
-4.680240555 3.929898383 3.223564665
-3.097622046 4.259561817 3.070547389
1.084188032 -3.831035119 3.631678267
-0.3867697569 3.892049551 4.078657643
-0.8917169451 -2.173265256 2.837193045
-2.593175466 -1.385018228 -0.3494380887
-0.7135994482 -0.9489892087 3.559903032
-1.041742447 4.566498631 1.648366804
-3.159347966 -3.474546225 0.3480813659
-2.772726583 -3.617248476 -0.9937200345
1.96718222 -2.337414808 3.919665633
1.274495453 -2.841372281 3.733344136
3.056039598 4.096702416 0.5873965935
-4.576923994 -3.272817396 1.733864676
0.4235825824 -4.036081029 3.35036155
2.196439232 -3.987410151 3.190004043
3.053175257 4.372418181 3.754610956
-1.637659805 4.53437944 1.810844536
-4.579445747 1.086751943 2.061328363
-0.4566579902 2.045613254 -0.2862219356
-4.615291865 3.295193586 2.875419282
-2.484511123 -1.385520939 -0.3273951748
2.417608122 1.321569238 4.352063103
-4.648110058 1.172192156 3.023501193
0.5527810441 1.996974364 0.3488210958
0.5263518507 3.473758203 0.04214827304
3.115918699 -3.632651956 0.7307924571
-4.389076404 -3.292560819 0.8394547905
2.488275479 4.280356487 0.6640481249
-2.962246001 -1.541804585 -0.4610473933
-4.621822533 0.1930993982 2.767466062
-1.321650924 2.433700613 3.795865059
-0.07719954369 3.598485899 4.128756693
-0.2325621082 1.246034197 3.853621129
3.057717886 3.848822432 4.227163654
1.593803023 -3.892985166 2.158182204
-4.624177708 -0.9886958198 2.653395063
-3.718482767 -3.167507608 0.5847238579
3.515009819 -1.962880369 3.319255643
1.822784786 0.2680373375 4.14285461
-0.8040793047 -2.179117741 0.2856446121
-0.2803173476 3.429000194 -0.113223095
-2.31953511 2.363877747 -0.6147274504
1.454796355 -0.7427962097 3.977570204
1.111219482 4.281220951 2.742481475
-1.541096123 4.542737224 1.748186007
3.283045124 0.0362594501 3.475072659
-3.348291467 -3.741912815 0.1879882076
-2.581211543 -1.636057686 3.123073804
1.122314799 4.235439675 4.280828812
3.002606358 4.431441601 2.002991386
-0.411201707 -1.045628542 3.600193563
-3.015807646 1.405766362 -0.1740548524
-0.8401786479 1.346816735 3.266278284
2.543058952 -0.4567314931 1.950994044
0.1514174713 -3.609651744 0.04126229552
2.521391048 -1.163579968 -0.03969370229
-3.241496711 3.346340773 -0.5400178536
-4.073664607 -1.450319906 -0.7637587159
2.358056722 -3.935212019 3.4224048
2.274065235 3.482758811 4.558283422
2.897012048 1.239714326 4.453310392
-1.614491595 -3.94561499 2.342259095
2.499850376 1.030057269 0.1980098298
-2.618068126 3.145008616 -0.5899662574
-4.417862343 4.48473558 1.585314055
-1.828117844 4.310550276 2.068517944
-2.750734769 4.395870699 0.1431770679
1.255056255 -0.2512740813 3.992233933
-4.115840103 -2.820218386 -0.4172420983
1.623617212 4.294591018 0.6842041511
-0.9356693994 0.4420660887 3.220851715
-2.453388608 -1.818340323 3.138142016
-3.645501258 4.720773734 -0.4542047023
3.613855027 3.42072179 1.52641945
0.6146375934 1.038463586 -0.01960054777
0.1552229207 0.2498125074 3.833821384
-1.228708673 -3.891799232 2.018733245
0.5719385233 -2.337788884 -0.5063757986
-0.9593392693 -3.587043277 2.78993741
-2.801433181 1.565435947 3.399704707
3.045668747 -3.600029032 3.582743866
-4.24951489 4.252772626 2.278380776
3.456315323 1.406481216 2.716114092
-3.767133981 -1.127628356 2.942508669
0.3464642908 0.5458420892 3.901727243
-4.055773054 2.334166899 -0.6167246363
-1.706127372 -3.930561964 2.308239027
0.2246112637 2.908339542 -0.06852978169
-0.2624319469 -3.595582112 0.09136372712
-1.986306749 -3.876845612 1.659095033
2.730414909 -0.06298199339 0.1227320106
-1.124039405 1.964776825 3.633638424
-1.5859926 -3.646492956 -0.2903162579
1.249306802 4.367938762 0.9322271227
0.8927146363 4.46132817 1.800700156
-3.965025391 4.024315544 0.5946540482
-4.144230398 -0.5056158012 -0.3507433043
-3.530192019 -2.197766106 2.894581028
1.916718128 2.116594378 0.1583136517
0.1246797423 -3.613232186 0.2402342479
-2.652303217 0.6979615422 -0.5705729128
-4.326010534 0.7991482348 0.8396980305
0.2791226776 1.189649516 0.6974165438
1.562646605 4.43912811 1.40479586
3.160508056 -3.57404727 3.550272035
3.194024759 -3.644175508 1.677628076
-4.305552252 4.300867312 1.030397558
-2.583542678 -1.210444619 3.163805749
1.917162851 0.5320598781 0.02326049457
-0.9822314767 2.391631678 3.264035132
1.449292911 -1.75069286 3.907683514
2.67977729 -1.444658837 1.259414644
1.632555567 0.4290201003 -0.04920384198
-2.606865596 1.564305605 3.431842369
-3.668588122 -3.384051359 2.604634032
-3.595836788 4.104863703 3.515096637
1.112030045 3.136921754 4.287627968
-4.604952182 2.35425751 2.353524994
3.184111176 -1.476592156 1.907015732
-1.807664959 4.384565917 2.206464988
-0.02388311515 -2.539037151 -0.5303714217
-4.422528657 4.234273042 1.575856813
-3.694080546 -2.963979824 2.786027827
-2.839637796 -0.4033878391 0.1589144732
0.9259336868 2.545156788 4.204239244
-4.003417272 3.135335525 -0.528786884
-2.244433834 4.193010218 3.750132379
2.08760601 4.312397751 0.7945715199
2.499858097 -0.5214928039 1.618119015
-2.544159748 1.448183774 -0.6054615849
-2.497035105 0.4576021108 3.3601303
2.959128707 -0.3162916913 0.3233566228
1.702501693 0.4659842027 3.988136426
-3.001420151 4.432201128 1.536033403
1.902505067 3.722846522 4.477782435
-0.762432262 -3.563043593 3.312606867
2.844458684 0.005029238497 4.220348269
-0.9675374776 1.1074912 3.345209544
-3.201675062 -3.878743642 1.619466022
-4.323380252 4.493486354 0.7964795605
-0.06001077574 4.334273194 2.473249504
-2.973795081 -3.242503451 -0.6220285225
3.368009591 2.86325247 0.8107682585
-2.006940115 -0.04238170198 3.400561612
-4.128884233 3.69167757 -0.08386410897
3.282095749 4.110155352 3.865071684
2.594103118 3.024135347 4.56792216
-4.077288526 3.430803677 -0.3884415468
-0.2275355297 3.873838351 2.229330335
3.116640589 -0.3650052302 1.15313408
2.278692724 -2.119332125 -0.1446481802
-2.372231178 -2.224494953 3.130234959
3.418366523 -2.714123016 0.366240523
3.301092563 -0.3425139438 0.1848444594
3.539224171 2.14898215 1.564631014
-3.911602078 -3.984005295 2.651656624
1.608334818 -2.231710707 3.6871163
-4.105688589 -3.190258786 -0.6145996449
2.231669709 -1.473200457 -0.1022497014
-2.379523322 0.2882924194 3.3333631
1.397718427 -3.655666867 1.00494427
3.338462269 -3.712511493 2.527221087
3.604185687 3.784454107 1.546789983
2.005252633 2.017559314 4.345587799
0.6664750671 -3.754039124 1.689838494
-3.43762031 3.735337566 0.4835743706
0.04747747552 1.649096296 3.971920948
-4.306710112 -3.634720442 2.635365924
-4.110025973 1.141953964 -0.2446825615
-2.761264723 -2.762342416 3.01137284
3.56259614 -0.2826146222 1.353895506
1.047429039 -0.4416982792 3.931436114
-2.757902489 4.223831055 3.293437974
-3.641842861 4.503942442 2.060254635
3.292547437 -3.771230385 0.8543911795
2.508501004 -1.265443219 0.8401253988
-3.690295674 3.085488286 3.220328144
0.1629104773 -1.809984276 -0.4461738324
-0.3552963593 -3.925052191 2.16728577
-2.913597439 4.335558944 1.860494507
-2.390844718 -3.251541996 -0.5030339333
-2.266667017 -2.410987462 3.130838393
-3.255474791 2.607643276 0.2159188911
2.635208146 -0.4338108406 1.468115952
-3.520828458 3.766330592 -0.1735239643
-1.427770515 1.060085439 -0.5664992138
1.179722062 4.35417372 1.839675543
-4.590881328 -0.02425276152 2.050434179
-1.106134625 -0.750906 3.19866502
3.37567844 2.521539781 0.7557840474
-0.7841076041 1.356463708 3.637561906
-1.326256906 4.581817773 1.152043863
2.886639874 2.333611728 4.538121882
2.160455065 4.362251607 2.240164491
-0.117753006 -1.428714367 3.612016468
-2.773299463 -0.1338991303 3.235985259
1.744524298 -3.965608353 2.788484278
-4.095392223 3.573390251 3.378066453
-2.444705451 -2.676531311 -1.119967964
-2.835883165 4.380079758 1.490116148
2.029833957 -0.6821782403 -0.05728505676
1.368846007 4.260551069 0.3546883409
-0.2437416475 2.321988397 3.955704947
0.02892918425 3.029712154 0.4381206708
-2.965350607 -1.586229999 -0.5672452425
0.04884973084 4.431892169 2.967430627
-4.204733591 1.040905743 0.1588624711
-0.04037397932 0.07235997841 -0.3816360752
-3.675450312 0.620363439 3.132661063
3.464647801 -1.641468152 1.603556173
3.305343377 4.373298462 3.584080127
3.368909704 4.012664783 2.640407813
-4.259161499 0.829298469 0.452480692
-2.351917766 0.8323003764 -0.6206767165
-4.175162795 2.967280675 0.07465141588
-1.133612023 2.117911177 3.630048209
-2.866606751 -3.282255914 0.02814192818
-0.773552648 -1.561885763 2.900149092
-1.061712087 1.989688736 3.42507149
-2.838876844 -0.9159635254 -0.06331175305
-4.634882372 3.382844426 3.055352917
3.021990285 -1.470918562 3.816694744
-4.227991981 1.933928052 0.3473696935
-2.690062821 4.419091943 1.579713162
-1.744198206 -3.763955727 0.4026598193
1.157930035 -1.545115604 3.853358277
-2.562138159 -3.496654815 2.957909977
0.8660421923 -1.930194403 3.766623121
-2.812394697 0.662563265 -0.7425093456
3.411222666 -2.278798324 0.02983310961
-4.210530311 -3.870491678 2.606332282
0.5962722477 -2.735943205 3.620259098
1.039412994 -3.796454965 1.732137848
3.545122319 -2.310289121 1.472128726
-0.4344146666 -1.908047443 0.01149520543
-1.819341458 4.322198038 1.961584668
2.315016686 2.763966487 4.480104828
-2.676838088 0.2803405398 -0.4272375318
-3.07145145 -0.742384919 3.129924431
-4.073775837 4.556381369 1.665287816
-3.550617967 4.613076979 1.036564812
2.600964956 1.549965771 4.421170199
-4.589631761 4.396144033 0.5102353098
-4.156290607 1.291543993 -0.1012187419
0.06772329051 -0.5386377996 3.754295666
-0.2837269445 -3.797267738 2.899589748
-0.3146749516 -1.135243978 -0.5620067625
-1.426259993 4.45167084 2.780143717
0.936322989 4.496878839 1.4997877
-1.173046329 -3.854645691 2.97851862
-0.9155104931 4.658595604 0.5434540683
2.93552581 -1.297206878 0.02709182674
1.717558365 2.517811782 0.1643901212
3.551761105 1.747225731 0.9770161787
-4.635384131 1.757453625 2.397264763
-1.263738465 -2.740035065 -0.8860712635
3.182574435 3.873017756 4.237721807
2.126417463 -3.961124322 2.562939506
2.910053331 -0.3963187883 1.714236772
-1.406086992 -3.800745182 2.602713182
1.928214821 0.8278452017 4.253655702
3.571874737 3.607850141 1.726407777
-2.933975867 4.069904951 3.621879607
-4.267666664 4.400214481 3.353390765
-1.002084932 -3.960203088 2.833766082
3.500830627 0.3696250524 2.43725433
-4.527508349 -0.9043586964 1.662577977
-4.645482836 -1.363789862 2.395919483
1.745287217 -0.2675484574 -0.09250121917
-0.9139262572 0.5709234645 -0.5027062738
-0.628847175 1.848867149 3.845697948
-2.261341442 -3.905404239 2.98531805
-2.205046136 1.061069468 -0.7168115233
-2.507838397 -3.246385197 -0.4136641097
2.730591257 -1.579514266 -0.01519600679
-3.681105707 1.525094275 3.216792692
-0.9321738289 1.702452001 3.190596758
0.7443128619 1.951394963 0.8385453263
1.155578495 -1.824373922 3.813176396
0.3589300699 0.003434611541 3.862880312
2.537403803 4.356454492 3.842500722
-4.007170529 -2.134681721 -0.8350295703
1.036861779 4.387877118 1.011532694
-2.707750679 -3.779014387 0.6196353899
-0.8315422225 -0.8500385671 -0.6355681553
-4.616652254 -2.644507929 1.983816328
3.537639854 -2.534238378 1.261581658
0.8754599362 4.362829443 0.8832072847
-3.797818201 4.646355553 0.712104516
-1.604045922 -1.626450825 3.320281705
-4.596100343 -3.297688891 2.032618348
1.289207901 -4.035517507 3.632035021
3.579315807 1.118387002 1.488980909
-1.614316606 4.542220243 1.732779061
3.588586408 -2.30586254 0.7348728092
3.165761758 -3.156103593 1.721133382
0.04744509951 4.388463221 3.463011454
1.068695318 4.423126162 1.522059811
3.535143377 -0.3984255122 2.271066293
1.707166995 2.73817297 0.1850922242
-0.9227178474 -3.183818925 2.852557855
2.490274251 2.022846157 4.435534026
-4.618074113 -2.094139355 2.472859317
0.4830543518 -2.92476551 3.574897145
-2.836387971 0.5011108363 0.2006635278
3.502394402 -0.2588412983 0.4140009267
-1.924465681 -3.725915446 0.1535936456
1.994961139 4.359301983 3.948603141
-2.643856999 1.680977035 -0.501462707
-1.931256854 4.425987432 2.780956517
-0.2912084992 1.660477547 0.4853228388
2.205598279 0.979077282 0.1086650238
0.9889180653 3.636194337 0.1354915685
3.439538886 -1.346520913 2.864318011
2.408986856 -3.679921599 1.006271709
-2.396379766 4.401584186 1.354831591
-0.9447339584 -2.660998975 2.767851094
-3.613005783 0.08007715876 -0.2849089088
-2.439088287 4.499085992 1.139368087
-4.588807153 -3.730962542 1.702839186
-3.675462011 -2.302646208 2.715851698
-4.617833147 3.225753692 2.742631047
-0.8515759171 -2.995192441 0.023214692
0.3352346739 1.440243924 4.002827784
-3.460160193 -3.23609629 2.661485093
-3.649351088 0.8920550662 2.995388293
-1.962391781 -3.612221775 3.071777742
0.6653859955 -0.547723679 3.870462651
-4.173518609 4.419916041 3.164338349
-2.149149056 -3.835137802 1.433070888
-2.582839349 0.7087568031 -0.3710973031
2.54480743 4.38563124 3.743739523
1.771150466 -3.918510769 3.282411598
1.670949563 1.065019167 4.059903947
1.802167093 2.030756065 0.1383919271
-2.437208408 -2.667532537 3.079526064
3.427661055 4.508701515 2.502019771
-4.260125896 0.2752033028 2.991198871
-3.652737998 0.1028058159 3.105099409
-4.17814327 0.5885735661 -0.1591421567
3.303467402 -2.843903255 0.9430754758
0.5566066759 4.603202203 0.4157007937
-2.369415856 0.7897736937 -0.7523253013
-0.748415544 1.227354001 -0.1475115835
3.154552757 3.84408383 4.527020831
3.415303385 3.242341805 2.89563639
2.689258505 2.714252006 0.3800810571
-4.510850539 2.108030481 1.748433009
2.563821854 -1.142126659 0.7496952412
2.610043232 -0.4760949489 0.05701977263
-2.700557683 1.167955417 3.383362255
2.523837183 -0.5515164668 1.434823149
3.030186382 -2.004758681 3.711130096
1.196984364 2.434147624 0.06639970001
3.046964467 -1.378457776 0.3448762101
3.052277378 -2.655910756 -0.07240561365
0.1623192806 -1.08680874 -0.4722195739
-4.215859122 -0.8109112265 0.1037654245
1.268822973 1.5022061 0.3455265978
-1.015660843 -1.252229681 -0.7091721758
-3.709292977 3.203828733 -0.7765875543
-4.112009776 3.40783089 -0.2065818447
1.330531856 0.4134414872 0.01618561193
-4.589119306 1.660248831 3.078986959
3.053315282 -0.383275288 1.523195586
1.655393191 -3.652191944 0.7453244245
-4.425475524 0.3721219563 1.164627864
-0.7226309081 3.374163566 3.572126018
-0.7820859731 1.695910109 3.228084798
0.3233695109 4.459208106 2.603476018
3.507414472 0.1488084924 0.2872894915
-1.127277953 -3.733023122 0.307677427
-0.3887870594 1.599423846 0.5748742901
3.166840261 1.581439588 4.005823564
-0.9160971379 4.129805847 3.654142621
1.353797248 -1.655575205 -0.2969459276
-3.271056062 -2.428596842 -1.257838335
-2.064483778 -3.705885495 -0.07698263964
-0.7511216156 0.7759326861 3.466904815
0.06627023394 -1.127145637 -0.4773058636
-1.439923928 4.423316288 0.6146851062
-4.208127993 -2.978058151 -0.01635177935
-4.149844614 -3.119591698 -0.5253690421
-3.84948912 2.484927112 3.263071565
-0.2771876945 4.250932041 2.324789184
-4.67356461 3.476121336 3.167915347
-2.698301829 0.6699993983 3.346027938
1.895245976 3.112937545 0.2601442969
-3.653508126 -3.218632022 0.792596439
-0.1925669651 -4.023825068 3.350981829
-4.239096299 2.831372232 0.4221693851
-1.257853953 4.391280041 3.425176005
2.9250919 -1.45866014 1.542590071
-4.597251448 3.373496709 2.345400384
-2.282400869 -3.658790002 -0.5247408676
-0.1315324227 4.306749476 3.91103562
-4.264375541 -0.574877626 0.418524194
1.315420539 -3.765430603 1.901015798
-4.230949425 2.09617702 0.2612538778
-3.194571695 0.6891361086 3.240672605
3.37315136 -3.757070714 2.913801427
-4.461378547 -1.573718327 1.308232375
3.301470273 0.9257526406 3.452611906
-2.84305699 -0.9356553349 0.0459516427
-0.927390434 -2.386163448 3.006277508
-3.959756394 -3.909236402 1.896074065
-2.862572563 -3.283493729 -0.07338811283
-3.369405367 -0.8031322755 3.045038459
0.7892856774 -3.026635412 3.62271745
-1.057842206 -3.014762629 2.835349846
-4.251573469 -0.7175623093 2.910550034
-4.230123299 -0.4494283225 0.1220506683
0.7845491196 -3.337125789 3.616019356
1.683615915 2.635731058 4.327947585
3.368303644 2.501525755 2.273794214
-2.524542139 2.681979552 3.551744637
2.364418027 -3.907240297 2.293889674
-4.265934309 -0.08603806117 0.4502341849
-1.988802302 4.522772988 0.9212899858
-2.334870171 4.506775424 0.656752943
-4.291736747 -3.874980066 1.409977143
3.377069844 3.934534454 3.361087407
-0.7782384294 -2.949391788 2.891960223
1.842001977 -0.8385617993 3.910021638
2.518414728 4.419507573 3.336414189
-1.098317181 -1.146929305 -0.7269917151
-2.603370788 -3.619462445 -0.8724435216
3.449710034 2.337630909 1.166403478
-4.63893026 -0.9914661879 2.759062224
-3.879360003 -3.824940132 0.9042084613
3.390149071 3.208982802 2.364535899
2.624056529 -4.027639248 3.578737693
0.8513934015 1.132541214 0.4347492332
-1.712966067 -3.592486204 -0.7227996096
-2.821824837 4.446747842 1.691733537
3.378469347 1.566834715 1.895463549
3.071353327 3.469700911 4.193914825
-1.21159429 -3.733679328 0.1893652289
1.513629997 4.237480855 3.434504411
0.6521760383 -3.905902782 2.176362875
-4.340407259 1.611763532 0.8193139309
-4.359155063 -3.019304693 0.7689833533
3.027321492 -3.003328926 -0.07362205832
1.348516769 -0.9484526438 -0.2369225311
-3.211558607 3.002966718 -0.7192434693
-3.821772117 -3.242816836 0.04657239653
-2.857884872 -0.2918698006 0.1748336452
0.6021891062 3.633544008 4.255314674
1.754605445 -3.759239733 1.691324617
1.956904932 -3.606782478 0.306535328
3.30933671 0.1537043449 3.39170572
-2.223616216 2.454839035 3.598898449
3.457191289 2.189500947 1.2481412
3.272281239 -3.575787887 1.178302862
-0.7892865446 -1.665598093 -0.0360233088
-4.133604424 -3.880152849 1.546681124
-4.447861324 1.130156814 1.349063817
-4.015952142 3.781241698 0.4038202972
3.458171283 3.080940235 2.4673966
1.411115818 2.338513736 4.267215398
-3.527474552 3.471057023 -0.4558211026
-1.201903235 -0.2464356324 -0.6399363791
3.074852418 -2.432096021 3.426430053
3.669357541 0.1233526444 0.490270027
-3.15546523 -3.634976517 0.2184712406
-1.646960466 4.238004712 3.35389481
1.80727396 1.667198291 4.120229616
-0.6954544484 -2.939102436 -0.550215841
2.142598419 4.002189802 4.182526984
-0.7186094735 -1.732003383 3.492096967
-3.614426248 4.60980462 0.9490149292
0.1489538188 0.5130139869 -0.3102454676
1.997233226 -3.571144321 -0.007167171919
-2.145110933 4.440147713 0.5779016457
-1.485043571 -3.853576919 1.660378466
0.9252064331 3.355361943 4.261996034
-0.1188150255 -0.3281958443 -0.457780451
3.637777011 -1.361206797 1.264504129
-4.274943119 0.7351315106 3.046808993
-3.10264792 1.471893398 3.337152607
2.486311497 1.427961573 4.373350839
0.3329900089 4.228291463 4.113823746
-3.690167152 -0.9936264977 2.831999786
3.499522557 2.754731542 2.034767444
3.65242663 -0.09253908656 0.5760569071
-4.547396174 2.114313259 1.950409944
2.880737062 -1.447680297 1.328281863
3.726231444 -1.43748706 0.9592877821
-0.2888403785 -2.573957781 -0.4392735171
3.42689245 -2.812098361 0.3757858536
-0.6051966895 4.565930503 1.629886759
-4.03934086 -2.241819865 -0.7276960659
0.3915097837 4.120009033 0.09209453714
0.1608289201 -0.03368430793 3.795631185
2.122994222 -3.99926098 2.965106024
0.1489428105 0.9552617365 3.898749837
0.5624983109 4.310114772 0.1626877941
3.190143682 -2.713947958 2.47386302
-3.599841694 -0.4363943652 -0.2563262208
-3.837349376 -2.118881602 -1.327307572
-2.182719425 -2.240457187 -1.042379077
3.465071567 1.120876575 2.686113856
-3.053656889 3.65565851 -0.6299972033
0.2112911794 4.204847005 3.708244881
-1.890097659 -0.1487238634 3.401582774
0.3697204733 -3.731805526 1.525685545
-3.860141916 -1.314029142 2.901654734
-1.922328033 1.811568809 -0.6019041503
3.167518483 -3.945858539 3.893680103
-0.5911131916 0.8048950846 0.02898483099
-4.313868421 1.953747019 0.6486184536
-3.656412018 4.307993948 2.724989033
-2.324216655 2.961802541 3.620119378
3.324385824 -3.197638061 -0.03183901006
-1.965622273 4.406126547 2.968075978
-0.9771044126 -1.410909962 2.98400113
-3.807310632 2.661569001 -0.4969820085
2.778461288 -3.558820047 0.158241123
-2.301789452 1.144016363 -0.7261290265
0.690252988 -2.433261945 3.654976869
1.630563552 -2.031076537 3.701068395
1.625806066 0.6442910652 -0.02151091963
-4.127286265 -0.9786441049 -0.5279838609
1.325263675 -3.542935341 -0.2121157979
-1.661871925 -3.810153523 0.9138223849
-4.563233466 1.10179984 3.018889646
-0.4716509684 -3.711620591 1.15006772
2.412875182 4.450794964 2.911553714
0.963960669 -3.703406862 1.121267429
-2.01247776 1.259989271 3.511580532
3.399934778 1.051967745 2.251087065
3.491657385 -1.426534139 0.9260989299
-4.165187931 0.2877031197 3.031533567
0.8044274917 4.445118915 2.062044308
2.931944136 -2.381075432 -0.05614341884
0.6581497377 -0.6939627093 -0.3268003401
-1.783874453 4.22982093 3.422189482
-2.51558067 2.278293509 3.533828974
-1.860751456 4.455094748 1.270837645
3.368504542 -0.4220688457 2.926366728
1.646990967 4.394158182 2.134595269
3.147174858 -1.649875079 3.414442443
-4.140501362 -2.980455374 -0.3090481281
-0.7640313419 -2.223180787 3.426917775
-3.305102812 2.16483189 3.362910084
-1.527222934 1.351248553 -0.5556571588
-3.662900439 3.944614605 0.5065505672
-3.257912015 -3.031779324 -1.304559235
0.007603391475 4.186988197 3.831472624
3.608478476 3.252512636 1.596907114
-1.094716513 4.328926118 -0.1400395122
-1.020076469 -3.88898718 1.836070008
-4.488544324 2.919162564 2.845784845
1.609948066 2.944030838 4.363044517
-3.685740126 -0.759994634 2.848941062
3.04964191 2.438747218 4.474918238
2.185548222 3.330462681 0.312954573
3.381171736 2.794750349 0.8038059446
2.017948496 0.922880734 0.05963484264
2.045430548 -1.342558166 4.0467787
-4.379126492 -3.338035604 0.7731439057
1.499611488 -4.060287285 3.539760616
-2.494384253 1.273657949 3.44200719
-4.438391398 -2.874135944 1.168345121
1.967532798 -2.55712126 -0.2504894759
-3.406059007 2.614305573 -0.6468935996
-4.655502084 4.117243592 2.786200584
3.550481521 0.8839826386 0.5542420969
-2.550321175 -3.639886515 -0.7727853599
0.7147953396 3.933103462 4.300683009
-0.727042662 -3.190241513 3.005192004
-2.33835605 -3.737875432 0.2747161772
2.688151828 1.841795297 0.305176166
1.57342873 0.5626455832 3.982480984
-1.232861252 -3.885990392 1.901382615
-2.312450065 -3.719205375 0.1992616413
1.425932097 1.238016405 -0.01471357149
-0.5709555553 4.531390479 -0.04205888757
1.474796056 -3.555015974 -0.4088112019
-3.984588546 -2.892369462 -0.8902610984
-3.47868605 0.08321081975 3.111512365
1.081050494 1.93322963 0.5366848076
3.584101613 -1.545400277 1.529476883
-2.37369827 -1.113994172 3.212983051
-2.714936833 4.302254764 2.398585624
2.885881959 -3.965806732 2.713122274
-1.696509509 4.515036452 1.69744286
-4.581785972 -2.228379882 1.828102691
3.57387202 2.813362359 1.446185864
-0.5665975661 2.147918157 -0.2828225858
1.724347725 2.125877763 0.1233549999
-2.72230931 -1.100028747 -0.5660166407
-2.014490363 1.057861409 3.506612469
-4.575078947 4.277084557 2.234299934
-3.025129729 2.754955183 -0.7049074192
-4.431795092 1.941449981 1.322747972
-2.591837825 1.867509926 3.455539267
-0.1361404895 -2.45492349 -0.5553132783
-4.52010436 -3.710336879 1.387222916
-0.9536468774 3.308872343 3.330102726
3.460175239 -2.240638766 1.860583309
-2.06795831 -2.42327 -1.026016138
2.833129439 -3.929179139 3.489868451
3.268854857 1.425192429 2.796782874
-4.574200313 -0.2238439551 2.007844976
-0.6857114212 -3.019330149 3.38105789
2.971795662 -0.3971092975 1.828495122
3.405528535 2.161923896 0.8389226245
-4.119493796 -3.927871543 2.117122204
-0.8741087014 3.846101473 -0.2066377859
-3.479454832 -2.960758842 2.675659654
1.156300227 0.1949256063 -0.1805193052
3.056117133 2.432720963 3.969937955
0.7091638403 -3.593675844 0.3506712722
-1.282196059 -2.825185232 3.273154272
0.5148618496 4.029946606 4.275114967
2.848115095 -2.961281883 -0.1366199525
3.05871609 2.75316181 4.114531814
-0.5122085689 -3.219150136 0.09482173496
3.319828556 3.141850243 3.566915609
1.386009067 -3.778379874 1.992758672
-2.984230483 -2.245763039 -1.179602651
-1.524385209 1.55260498 -0.5504590225
-2.278964251 -0.1276618696 -0.8120702225
-0.3590842455 4.270745144 4.117636283
-4.613591044 -3.493630442 2.413355347
0.4658773919 -2.347076816 -0.5205388954
-4.624096474 2.419994891 2.65921024
-2.28609063 -0.6522258261 -0.7336832003
-2.560015725 1.323556836 -0.3007624734
-0.2566262811 2.573074914 -0.2009105429
-3.289465885 -3.768620234 0.5979922826
-1.55068748 -3.905856756 1.965615418
3.51246998 1.006997274 1.762826586
2.760241476 3.117246206 4.602680492
-2.981687585 4.279241629 3.482705865
-2.268463875 -1.931666637 -1.019440269
-3.728147582 3.984524406 3.330831218
1.826961218 2.835967526 4.388274277
0.3695703707 3.269572511 0.8872350363
2.449494219 -2.059407904 4.038590588
3.635740878 3.776222772 0.9263404251
0.9668969397 0.8000731975 0.4489251542
0.444107905 4.396467138 0.6764869318
-3.166065112 3.187844407 -0.52555675
-0.3948086609 -3.129950105 3.41428773
-0.01017543842 -3.565531426 -0.1909396465
-1.288116696 -2.122202335 -0.8414970431
1.348491467 -3.921690526 3.214989987
3.491720189 -2.433500499 1.749892444
-0.2268224287 0.6540873636 0.1727094973
0.1823001964 0.7146127263 -0.3060214097
2.932920893 -1.684082547 -0.01243548465
-2.563409515 3.947792515 -0.4895239155
3.453353174 4.518209384 2.200263151
0.9748867279 1.985753215 0.8668151374
1.760603841 -3.600535367 0.1734187386
3.377226954 3.624841849 2.633656323
-0.06276442761 3.346731924 -0.08401967352
-0.9283801543 0.8094720108 -0.4950560859
2.546820895 -0.8644553302 1.085658779
-3.025600747 -2.195921417 -1.179132698
1.171838397 -2.618336151 3.755569457
-0.6737098921 1.489029749 0.485702888
-0.8172043254 -1.21572719 3.141962135
-3.342590451 -3.140249837 -1.305871328
3.325365895 -3.762046098 2.615629899
-2.957488345 -1.41860033 3.082054505
-3.618508182 -3.174537782 -1.029721805
0.07279270342 -3.692691862 0.9723579897
3.083091196 2.147436415 3.735719597
-1.203833078 -3.986640677 2.851762995
1.067073052 -2.829397313 3.694301873
-3.518324715 3.612903419 3.469326089
-1.028876746 -0.7929090907 -0.6598589891
-4.572792246 1.375586494 2.047418855
0.9888074894 -1.330542239 -0.3208328992
-4.476110264 2.028766689 1.625283349
-4.627393128 2.803372981 2.99315759
0.03867455857 4.556429773 1.540622536
3.673661656 -1.481269126 0.2698747597
-2.124022489 1.559754736 -0.6701868917
1.273648628 4.2927855 0.4367323262
3.647599958 0.5176214519 0.4048542958
2.30198504 4.18099604 0.4310431946
3.555097505 -2.619235643 1.651298546
-3.977526141 -1.758410947 -0.9810774043
-1.918754907 4.587426309 0.5742923507
-0.5353885727 4.445336749 2.852883257
-3.83858049 1.157666549 3.174794378
-1.022236962 -1.961763114 0.3042256437
3.432881438 -0.2264595232 2.781828914
-3.039374042 4.5062949 0.6200434224
-3.770110447 -3.267846006 -0.14497831
-2.42008704 2.458866007 3.550046207
2.64004502 -2.347064768 4.04598593
-4.557553058 2.783877865 2.08494569
0.9745226379 0.5082108041 0.1991012737
3.514941375 3.321509319 2.513786485
1.561716598 4.260822904 0.3772494272
-1.265454066 4.471614512 2.492996716
3.255235901 3.999470144 3.944666465
1.249655377 0.6435159609 4.086556853
3.624567957 3.987539143 1.373495697
-3.928120657 3.662790583 -0.7685643429
-2.207419432 4.279259607 3.552676779
-0.4395278155 0.1879235132 -0.4688094698
2.892280665 1.715107146 0.3042516867
1.779772808 -3.35918438 -0.3652887367
-4.27301773 -2.577639319 0.4272794069
0.7172017102 4.603932992 0.5760624231
-2.816318732 -3.283961756 -0.2914350446
-0.3995051373 -3.620194645 0.2654976482
-2.420069067 2.654337303 -0.6149247801
-3.680111999 3.991277213 3.321654068
3.34357378 -2.659362168 2.632979321
2.473204818 4.479621712 2.624893136
3.272770577 1.512635494 2.794892163
-4.606813218 1.619996024 2.599155403
-1.925716177 1.648985114 -0.60434418
-4.015629192 1.394530314 -0.7844515772
-0.9533801714 2.634258137 -0.3112546664
-1.064391703 -2.805180989 3.0706257
3.460536035 3.60901568 2.319690901
-0.9387939206 3.04685863 3.303530075
-1.126489292 1.142537763 -0.5018262622
-0.5437034433 1.349803259 3.820248606
-4.610703031 -1.286543488 2.540845664
-1.864957743 -3.134842205 -1.04562253
0.3019440121 -1.73798727 -0.5301458303
0.4252238805 1.727970157 4.044820607
3.2112099 0.5158664189 0.2577494416
-0.7772844201 1.345569694 3.183126995
-0.5356550361 -2.345504369 0.1436561314
-1.071688871 -2.035485557 0.6749089059
3.243429125 2.502911595 3.088519887
-0.834667004 -1.306023038 3.143218249
3.500715398 -0.01022216502 1.774385362
-1.332624226 1.852103954 3.726312992
1.239494213 4.320051112 2.157435535
3.106107813 -1.105815177 4.218309851
-4.143182368 2.172811309 3.199383894
-3.997115428 0.3153284256 -0.1986231107
-4.496887304 -3.372975523 1.325680012
0.5848733159 4.268402326 0.2733161117
-4.203588577 3.454485844 0.1863756767
2.422781836 -1.461980054 4.108018756
-0.2453345268 2.45866001 3.998896631
-3.395263168 4.174114339 1.127602496
2.06483224 -3.659546979 3.818908799
-1.771099426 4.612297781 1.377379164
3.053922137 -3.743830627 3.986167729
0.3206975717 1.95633925 -0.1241277446
3.090513656 1.711080434 0.3757236784
-4.579916466 1.492955933 1.974843729
-2.880827242 2.921536259 3.505686152
-0.753153109 2.65706339 3.913987673
-2.297050009 0.791833984 3.419998899
3.195902822 2.698939195 3.211475243
-1.681098147 -2.030105757 3.275909154
-3.794918296 3.699920358 -0.7346182049
3.269204616 -1.257632901 2.829438051
-0.6317650841 0.8396036329 0.3506441259
2.765515142 -0.403827036 1.290358977
0.7281634057 4.279292309 3.369487633
-0.8105723686 -1.28390552 -0.6628912151
2.946304453 -3.599297462 0.8112712089
-0.3607441588 -1.517224035 -0.3424868019
-0.7426350321 -3.111349698 3.081593938
1.169227641 1.258601357 0.3224145024
-2.759566579 4.484214414 1.28297184
2.67226855 2.821860789 0.3706943639
3.29371483 0.4234184587 0.2628648942
-2.885714661 -3.656601136 -0.5415965436
0.9147594065 4.401203564 1.0876275
-1.24705974 4.614327671 -0.1688658438
-1.297801386 2.75818754 3.815619467
2.768871106 -0.4438422682 1.922869798
-4.086452765 -0.9846085173 -0.6191266193
-2.61737901 -3.883468256 1.74135477
-0.4717139298 2.749857405 3.973959835
3.383568633 3.940678554 3.256283687
-1.544096034 3.711696684 3.878964923
0.5840280196 4.314618778 2.541772307
3.102300395 3.077019927 3.695986234
-4.19205473 -0.6364413147 0.001919024327
3.44374173 0.8360320174 2.25772393
2.929557538 0.8272370968 4.423199663
-1.319224519 4.40861954 0.5795860721
2.482271103 3.836547493 4.622820681
0.3630504235 1.033751496 3.984805694
-0.6510473655 0.4732731614 -0.4832781938
2.269645789 3.616934792 0.403393505
-3.030380573 2.54548098 -0.7332039268
3.534040703 1.996290898 1.473675964
-4.440383948 -0.6272519486 2.865164832
3.112935552 4.40515765 3.445198642
3.303010906 -1.672118362 3.554675523
0.973151523 0.7413818183 0.2580279735
-0.4586771489 -3.20283534 -0.006091392101
3.381467117 -1.011730032 2.77092247
3.500921189 1.94241618 1.668707495
-4.302183084 3.368784055 3.304770217
2.067528019 -1.95207679 3.971262637
2.282551407 4.431333098 2.120131794
-0.9659789882 -3.163903333 2.725732024
-1.417930988 0.7515457345 -0.6060806739
-1.501176437 -0.6395115284 3.441828001
2.24522282 -1.152604924 4.111338333
-2.749452113 -3.80747494 0.8007110333
3.368387172 1.819885387 2.236825898
1.634813528 0.5897509497 4.135542908
2.386161602 2.877616575 0.3486887483
-4.343136976 -0.7068774233 0.7881952319
-0.1600374486 2.236431993 3.98561121
3.527071585 -2.023150845 1.587916996
1.179398823 0.9390403866 -0.09177562454
1.531960733 0.3392321327 -0.06631176675
-0.8674503079 1.076518581 3.370472802
1.254074492 1.625189592 0.2628149569
-3.639746123 2.846822771 -0.6202369414
-4.488327263 -2.089641686 1.451236631
-2.592461796 -0.4237000921 -0.3241833967
3.332433787 -0.3626511128 3.256974367
-0.9565472242 -0.0369346434 3.064081395
-3.463795519 -0.01954255166 3.101878105
-4.67080818 4.155610943 3.298914387
0.7012365428 3.742806661 4.276254164
-2.746951057 -2.907298951 -0.8911319368
3.141962648 2.512638992 3.496687138
1.647137675 -2.417408063 -0.3018108137
-1.158777362 -0.238470807 3.506472821
-3.886346579 3.807489615 -0.3078776275
-0.3189995308 -0.8306961688 3.634646415
-2.821576593 -3.062586668 -1.035136523
2.182802072 4.091318209 0.402047222
-0.7700941456 1.268526935 3.621883331
-4.002494771 -2.311347376 -0.8298169158
-0.7155993357 4.558790735 1.693997229
3.458822802 1.062484648 2.065223942
0.3143287024 -3.56691574 -0.2970951954
3.490348174 4.542016297 2.100077276
-0.9523626346 -3.327669625 2.721215674
3.338761771 0.05115323201 3.172425068
2.745821687 -3.653758828 3.953883109
0.8430616867 0.7701849942 0.02688830766
-3.109221526 1.571468784 3.344347789
-1.225294669 2.135519961 -0.4140881979
0.3077191365 4.600074109 1.198731161
3.358616579 -1.505360141 2.538644904
-3.301399673 2.663095002 3.406938377
-2.902519675 -1.563665343 -0.4713782046
-0.7064827894 -1.672370464 -0.3401073988
2.263594837 -2.75173304 3.922435126
2.971290237 3.411898711 4.671540392
-1.277216146 -3.23870297 -0.9375774828
-4.196595361 3.352780116 0.1882506448
-3.658775754 3.702341729 3.446879528
-2.520524782 2.367012357 3.532566525
3.617580164 3.953977342 1.244110323
0.8232318856 3.760943211 0.147932145
-3.575323363 0.6953275688 -0.1827774564
-2.219394757 4.327443891 -0.05826106375
3.366356496 2.989142457 0.6233260013
-4.257360398 0.3719288095 3.009377102
2.091550776 2.716313729 0.2714132887
3.52292637 -2.417187666 1.658976913
-1.436582332 0.5548073283 -0.5928718338
-2.922285736 -3.883998039 1.688655679
-0.01996745442 3.419696652 1.183497024
0.9612403048 2.137320967 0.4730360684
-4.135147666 -3.288749169 2.682494289
-3.346959399 -2.262099786 2.927950507
-0.6612233027 -3.963391096 2.737491333
1.060512969 -2.30816832 -0.4116354848
-2.61210398 -1.073866829 -0.4923302019
-4.232717941 -3.25464961 -0.03076583354
3.142650908 4.171238372 4.662056275
-2.189855219 -3.656205313 -0.4023467438
-1.343280116 3.137705316 3.857399407
-3.331010408 -3.263709893 0.2162348919
0.3447232934 4.516940911 1.910060258
-4.116369212 3.960876195 0.953760403
-4.101888013 1.131804252 -0.5102015429
-4.121128822 -3.070577429 2.691655095
2.175779125 -3.69206256 1.170398613
1.638511577 0.7320899936 4.154532876
-0.7956654406 0.1643452955 3.048325219
1.627990708 3.375982953 4.279278965
2.534861819 4.381292457 0.7397635388
2.331082775 -3.037678618 -0.2181009523
-1.116373514 -2.684215657 3.051235501
3.010411649 -3.577726584 0.51143677
-1.61778958 4.392300629 3.253787647
2.292855804 2.533036737 4.44528682
3.408311187 -1.142752936 2.278640769
-2.916580885 4.30485114 3.148512189
-0.2154614411 -1.723744494 3.587366816
-4.537071358 -0.6955207742 2.846406972
-2.761433494 -3.66541224 -0.6399630722
2.64570247 -1.381247828 0.3349241587
0.4194171282 -3.937627321 2.344954766
-4.083996157 4.401466967 3.285846441
3.101268814 -1.17594772 3.966612371
-4.216684267 -2.224691355 0.2726758641
2.986710412 -2.753496302 4.069814564
-0.7003453006 -2.654893052 3.387503212
-4.616517742 -2.795310619 2.494858777
-2.345701699 3.761195226 3.724014244
-2.747603986 -0.8279578301 -0.4016048553
3.079824445 -1.84406895 3.557362278
1.58320352 2.15377045 4.113682842
3.302025586 1.954442598 2.548038351
0.9833236302 -2.045201516 3.76609314
1.798533996 -2.71913865 3.714956808
0.4659252467 -1.153969139 -0.4173896247
3.42265723 -3.621444757 0.4865740706
1.600174379 -1.130094267 3.789972499
-3.76756852 4.290718962 3.329927774
1.819760432 -0.237344906 3.923087276
2.106986358 4.354898546 2.419340345
2.433617263 -3.57205208 0.318031188
-3.663732646 -0.566952937 3.005820222
-0.1346707792 0.8524725513 3.845959948
-0.7934774655 -2.347872793 -0.7535993137
3.171576745 0.5818237449 3.955409932
-2.711804659 2.362521904 3.502933776
-4.647605274 3.396598575 2.863359754
-1.037410511 0.6637402704 -0.5125952261
1.125971759 -4.05362895 3.47421976
0.4544744439 -0.4216445612 3.822657334
-2.770133329 -1.426965636 3.119365102
3.74258477 1.736577823 0.4856803023
0.9622873061 -1.84051561 3.791945998
-1.039141898 -3.712265713 1.148150804
-0.7583549007 -2.51843485 3.369346781
-2.316957763 1.81337361 -0.6800548093
1.320347541 -0.03233582549 -0.1327206467
-1.395761397 0.05836976015 -0.6555464486
0.4351795736 3.60717381 0.03040610793
-0.9795804149 4.385012625 -0.1102618597
3.119907667 -3.225138863 2.418628689
-3.632372346 -1.199934006 2.818650427
-4.421640729 1.733471914 1.310744687
-0.8246475585 -2.702731828 3.016468986
-3.136192834 4.474005797 0.7017846773
-4.562948854 1.101366069 1.92462639
2.130072213 -0.053116004 4.152959214
2.715212044 -0.7835155591 4.22732509
3.191219537 -0.6139083488 3.810639001
-0.4285743929 0.5796451673 -0.2339869525
1.682360129 -0.08716003339 3.937686856
2.988892754 1.232305358 4.443426706
-1.818110765 1.756004583 3.608874105
-0.9399644744 -0.4019553966 3.215553728
-0.9559539536 -0.6973160987 2.955206858
3.121988391 -0.9217864949 3.794329148
1.318673611 2.637588027 0.1167168395
2.233133113 -1.420986342 4.075888386
2.703101894 -3.734881778 1.668782554
3.391328179 4.049807253 3.266608633
2.393105914 2.59542293 0.3152929673
-3.369517727 -3.85631054 1.399142022
2.979202888 3.907557283 4.269950427
2.230243319 -3.754613078 0.8405757169
0.1692829905 0.788736236 0.1624719061
-3.447350415 -3.346122725 2.801637187
-1.665681773 -1.582191371 -0.8667927107
-2.938007044 4.228684715 3.189794994
