# .PCD v0.7 - Point Cloud Data file format
VERSION 0.7
FIELDS x y z
SIZE 4 4 4
TYPE F F F
COUNT 1 1 1
WIDTH 1282
HEIGHT 1
VIEWPOINT 0 0 0 1 0 0 0
POINTS 1282
DATA ascii
0.0006104186743 -1.470759306 0.3695010335
3.177319874 2.730636957 3.886885634
0.9971575242 6.179960581 2.307792139
3.219247346 0.8061515834 -0.06163969327
1.024435364 -1.305014745 3.732332197
4.305146066 0.5711000414 2.100624491
-2.654278914 -0.7509302105 2.142849528
3.464859366 5.106770367 4.00689267
-1.731936711 -2.634911115 5.743144524
1.200638503 -0.4453064361 4.20417674
2.629806702 -2.072730552 1.496501171
3.185597423 3.773973485 4.025884771
-0.6938729262 4.107732283 1.560484879
1.956183467 1.425654346 0.3047053255
-1.596426705 -3.958406386 4.096827989
-1.831251495 4.566086837 5.481940587
-0.3878026499 1.412246349 5.658504509
-3.844309546 0.9468552282 4.667676263
1.351058729 3.662706314 0.3427419991
-1.418790341 -2.850059608 1.909937909
4.886526302 -1.5259662 1.31487715
0.5827939746 4.516639428 0.9144617748
3.443866606 3.657574789 2.746246027
-4.298923051 1.293708256 4.040439672
-2.398401239 -3.029655554 4.472523889
-0.1936990278 5.034370406 4.537673165
1.368661853 2.827547507 4.921432948
-2.596876229 2.380522415 2.321304895
2.63725095 -2.013402372 1.322033507
-1.988567897 -0.06963998172 1.589388583
-3.738799721 0.4746947414 4.511725595
5.131602051 -1.632040022 2.097624155
0.1676604401 4.934298057 5.327484501
-0.2490581716 0.434826938 5.402230284
3.726964517 2.65291075 2.181172842
0.7947872165 -0.2554785015 4.2706159
0.6278162142 -0.2186944399 4.848799811
-3.750333974 -0.2025540858 3.941940758
1.556347176 5.563972173 0.9784087403
-1.264408298 5.024897247 4.364757598
0.6088629124 5.902167907 1.888489317
2.431898097 3.9896151 1.022245275
1.138078885 6.14591469 1.885886602
-1.312304721 -2.089114684 0.8521479922
-1.089035838 4.224956915 1.802449341
1.279411 1.352735298 -0.007952263391
-3.376253602 -2.548606155 1.918852883
-2.924459603 -2.187368213 4.100103791
-0.9286150011 5.322827085 2.065161809
-0.87552813 3.282890779 1.506659416
0.8659767766 -3.401007185 4.155733569
-2.546316323 -2.299315139 4.783148479
2.195230509 4.952806033 1.342292186
-3.062082064 -1.291541017 4.55338644
-0.3790371548 -3.415160431 3.190069804
-0.3018615885 -1.210365291 5.158222698
1.779255546 -1.410857655 -0.713838543
-2.087580808 4.744084106 4.986011886
2.184523684 3.457983517 4.582392967
-0.9462690867 -3.960618889 4.679952059
-3.04661608 1.268658634 6.499203296
-2.293592466 4.919060109 2.598403371
-0.1239622418 3.132093778 1.250086518
2.772513734 0.6301439164 3.75655036
-4.058794369 3.585441088 4.942957488
0.2504886966 5.759465289 2.189054041
-2.139704683 -0.690774178 1.549781477
-2.231519055 -0.6172007872 1.615188402
0.2632223966 1.368323907 5.267756281
4.948847377 -1.540831887 1.770400525
-1.429206654 -2.36085283 0.8820687938
2.383791779 5.88222558 4.294113976
-3.249987487 -0.159676295 5.061846349
2.316834785 0.7421902814 -0.2337574624
3.816434969 3.215358363 3.084715913
0.5665925425 1.1896396 0.3799239718
3.159307057 0.9715189616 3.626307813
-2.274438394 -0.8492387307 1.634190153
3.482900772 0.3669657233 3.319249918
0.6491464178 6.345484245 1.30607784
2.217722209 0.5712954867 0.3542055406
2.978440672 0.905674941 3.706189147
2.740821822 3.476078735 1.134812517
0.2631704772 -2.917675268 2.002632985
-4.509069557 1.238082614 3.566151172
4.470114429 0.1707582346 2.770499444
-0.4611625253 -1.279097552 5.245828069
-0.4895043961 -3.731081155 4.387650758
-2.894942524 2.375694131 2.462823486
-0.2684156216 1.299866304 0.9396242301
2.018560828 1.846278312 4.389236228
4.311317492 -0.3961263167 1.031049966
-0.7100937983 1.173779265 5.76077705
-0.52698563 -1.413851023 5.271587165
-3.909725276 3.58712935 6.726683192
0.3626096089 2.732108768 5.072516617
-1.262870721 1.881560294 6.21368299
-0.08367597271 2.398801087 1.09728333
-3.387990079 -1.301364577 3.818413846
-0.5060718066 1.836181577 1.738556089
-3.671454319 1.66408787 5.604251603
2.968466508 2.042657413 3.864158651
3.225382436 -1.982217821 1.354743151
-4.122168334 3.554219625 4.358701215
-3.417354026 1.377602855 3.305784349
-0.2900363799 -1.544931863 0.520569569
-3.03334744 -2.125107579 1.801161412
-2.852661361 4.914989084 3.279321399
-2.620982102 -0.2116036542 1.891188864
1.850110127 0.6012107489 -0.4195099942
-2.934796331 0.716688277 6.312061441
1.470159457 0.6190893559 -0.2152427067
3.511384571 1.716226778 3.529046691
-1.987701529 5.005018233 3.819824886
-0.007277162091 4.678101901 5.827504907
4.060461284 2.554303315 3.039025388
-0.09772325092 1.310581175 5.469595235
-3.325733615 0.9761545076 5.749871805
1.394957126 6.08915008 0.7879398416
1.230705852 -0.3203150146 -0.2452592408
4.745385069 -1.685200584 2.319367921
-3.07220706 1.198089474 2.368220895
2.335438065 6.242088149 2.552482132
0.8258137432 0.1531802668 0.06355966413
-3.155022614 -1.592349805 4.081921819
-0.6192334866 5.453221495 1.819132103
-5.034064143 3.071326869 3.797114519
-1.350405942 2.21496611 2.258043725
2.901744396 -0.668993042 -1.125124304
2.595231331 -1.710607238 3.496924724
2.077665817 4.216294417 4.759890816
0.6866778746 5.82426401 2.849306489
-2.229374672 2.237203946 6.788938147
2.676101904 5.887106378 4.148283878
-0.6936395221 0.05526944127 5.584039361
-3.502005687 1.67932881 5.968536863
0.526151363 0.7447968267 4.352026598
-0.2274664608 5.630086667 2.738743623
-1.302461912 -4.249803138 5.246087601
0.08186740572 3.169508397 0.9305316362
-0.8441089087 4.271283571 3.406290293
-0.5288629427 3.489179297 6.09402881
0.9188576588 0.1088935782 -0.01857838868
2.996885704 3.529183246 1.814097
1.426282491 3.140456146 4.943000272
1.045661391 -0.8535140248 4.435538936
-0.7977344569 2.769977074 1.939536986
-2.151427416 -3.184260655 4.899661672
-3.145637134 -1.891234261 1.904851253
1.510755386 1.559187826 -0.08537549582
1.345259122 -2.382160456 1.509480133
1.179362893 0.3826563389 4.636808577
0.3031374332 5.275636481 1.176325604
-0.5357624333 0.8925569451 0.953750343
2.383559969 6.333265717 2.381672771
2.979770434 2.874043679 1.12411631
-1.582414115 -0.5902703604 5.980871837
-1.657379428 0.2388888498 5.994413256
-0.08135869934 3.045848141 5.087454561
3.691483149 -0.3765303524 0.07999138082
0.1331037723 -2.603036732 1.297730539
0.2548681306 5.248184785 4.169453043
4.16677495 -1.954261877 2.572276583
-1.688301432 4.381196032 5.410166306
-4.728063316 2.842397967 4.406587584
0.09840140851 2.530080935 5.577206085
2.936969817 0.7691072884 3.727327313
1.330676033 2.701757207 4.932942061
-1.920865282 -3.59613226 2.50711716
-2.949085225 3.454697739 7.412820502
-3.647315504 0.662154661 2.629566477
3.537671099 -1.854085955 1.114089396
-1.442968587 -4.08737207 4.826713914
-0.8419188448 3.20965925 6.197631242
-2.595359893 -0.3164763357 2.054661884
-3.837744101 2.337400923 5.795798158
-3.193486766 -2.840981102 2.851761994
-4.835550338 4.036004465 3.900366184
4.2550288 0.263660599 2.892681985
-2.83134895 4.609228971 3.168775371
1.094755386 2.414197748 0.264584641
-4.87546904 3.589772733 5.657523892
3.928695865 0.8743512532 3.165661468
2.555258337 1.827611347 0.3822848053
1.270508716 -2.1805758 0.7672181646
-1.903415736 4.052164546 6.38258048
0.8238794485 -1.753367716 -0.241517586
4.057878445 2.575015712 3.363242111
1.054455997 5.460217307 4.114241749
-0.05664442372 2.084782648 1.494101465
-2.932456549 4.409631236 4.501772427
4.554159294 1.369522952 2.915098826
2.994595241 -0.008214915639 -0.9291784459
1.535359856 0.2851927206 -0.2848753898
-3.240562957 -0.9329309862 2.122957069
-0.9841325985 3.901102044 1.963939441
-2.678467683 -0.8680532454 5.672200582
-1.442505869 -3.025513553 1.065171037
3.072053301 0.3130395038 -0.5939629603
3.304566745 -1.203295112 -0.7399588462
4.164662711 1.402988208 2.63126432
0.874124277 -1.480639636 4.479897033
-2.70227199 -2.437269784 4.384452573
-1.749707262 -2.17393937 1.111358075
2.101629299 1.825619164 -0.3681707735
-0.4506023888 -2.590763771 0.958369702
2.781226919 3.271389935 4.218282495
3.516645422 4.084384982 3.936711271
2.561251152 2.670733627 4.230424158
0.04341764159 4.342779945 5.630698592
-4.050010065 3.869141843 3.359130153
-1.537946273 5.106140623 3.835139118
-0.1737854691 3.759954287 1.194073667
-0.4484321481 4.607235823 5.700812904
-0.5684391473 -1.269985221 1.584367212
-4.19942993 2.717157317 5.369412188
-0.6485103363 3.009685615 1.749336972
-3.177470791 -1.544244149 2.261858858
-3.516964501 -2.05768077 2.950388916
-3.652524305 2.438457581 6.288725873
-2.129109022 3.015418628 6.824171076
-3.509329965 3.337645256 7.318522561
1.153908427 5.69194573 3.275083145
-2.651978595 -1.885879222 4.927820974
4.523452823 0.03305286709 2.158119661
0.2388067898 -2.289895646 0.2910913196
0.9570364689 4.297271269 5.381953973
-2.971698307 0.7499059164 3.223691344
3.104482471 0.7287352033 0.5859895226
-4.30154791 1.732816649 3.15175605
-1.017148567 5.579879647 2.608787214
2.521359118 4.129474421 1.339106722
2.907474441 4.572042281 4.325405622
0.5389515696 -3.473151343 4.056845657
-2.51339507 0.40097181 1.936798474
-2.858271116 0.3421188284 2.87768723
2.758103495 0.7995639499 -0.7750180261
0.8878102729 5.595639381 4.735239444
0.7396795917 -2.730806685 2.236894606
-2.462478033 -0.2615861781 2.332205769
-0.5637447809 -3.203558087 2.278626699
3.334630927 5.901533099 4.334831917
3.896067451 0.4825656731 1.05517532
-2.09071908 -1.366765651 2.521837958
-4.64634055 2.89000829 3.642277211
-0.4689792473 0.1596618259 0.7636008702
2.780189561 4.671474332 2.242147146
-2.016358749 -3.926985653 4.568139766
-0.1946885854 -1.434930258 1.455457248
2.628063513 2.614250434 0.2326485596
0.531973857 -0.4773601456 4.811098779
-0.6884608243 -3.431357612 3.001300018
3.909832438 2.743124573 2.940148385
-2.178725215 2.476431409 2.078083715
3.004911465 -0.04444277518 -0.6026396608
-0.8408192818 3.11519234 1.456011778
-2.321744934 2.007104133 2.088805634
-4.532719603 2.057388774 3.968873738
-0.2011982303 -1.793203798 1.486288422
-1.110800759 3.579106618 6.413266655
-4.757765088 3.862208603 4.607974289
-3.589889386 3.864855254 6.359110447
-1.617441183 0.6485751046 1.479921703
3.733902845 2.001583725 1.73104768
1.744784992 2.116721479 -0.1319741226
-2.641346505 -3.32513934 2.717081993
2.418299873 0.2614994473 3.930273138
-2.71364124 -2.454466918 4.155089154
-1.370810098 3.879297599 2.037656721
2.7597738 6.27267502 3.417335682
-2.033070021 2.721990038 2.053718249
-2.052053249 0.1785208699 1.651342435
1.121603656 -1.777878886 -0.3780588852
-4.403943519 3.206544898 4.819935315
-0.9067058638 5.317019114 2.83991492
-1.503191898 0.9893636326 6.178152269
-2.221376261 3.207053474 6.76729037
-4.594841118 2.531018784 3.439050124
0.3143779683 1.511419122 0.8685416431
3.956396306 1.428810474 1.748788031
-3.054664029 4.43556635 4.314722976
-1.397975751 5.420301976 2.883018213
0.7230723296 3.389242093 5.383737315
-0.263905729 -2.47829245 1.231188458
-0.8939312089 -2.833238845 5.062129012
1.387533876 -3.16096671 3.667338737
-1.047389908 -2.305332955 0.6992546304
1.340337543 4.460105622 0.468766954
3.094279325 0.8268434738 3.63541976
-3.943744816 2.193624302 5.486645735
3.454472187 3.406510287 2.67932411
2.60808222 -2.546360903 2.756090319
4.323717963 0.2370049226 1.937790309
1.382494184 2.194083373 4.795811266
2.470175988 0.3140701211 -0.8076168391
-1.778939339 5.312085125 2.750407825
0.04040597862 1.559919602 5.442870887
3.783514323 -1.901765538 2.801056922
-0.5131034088 3.378703802 6.040722019
4.128772549 0.9420979155 2.021124283
-2.407576463 1.331205426 6.76003827
0.4281125672 -0.3565239353 0.210096876
-4.666166179 4.051001005 3.771258254
-0.4087764768 1.921667761 5.761864912
1.710012281 1.452773397 -0.2284580437
-0.09149537283 5.482719608 3.123367042
2.768416377 2.719667452 0.5446116216
2.507065652 -1.855860766 0.716067123
3.23433416 0.04592453476 -0.8283712483
-3.423854075 -0.8240414904 4.13531203
-1.384587332 -4.251492499 5.090672383
1.082067588 -1.057756471 4.055491279
3.263862565 2.049579694 3.741479444
-0.003630922345 5.682709342 1.618887349
3.729108857 -2.277478761 2.65344689
0.2656117563 1.816810659 4.672413371
2.979208804 0.2154144363 -1.114263505
-2.946001192 0.5768252364 2.935970372
-0.09478024605 5.623380218 2.031886456
4.17363406 0.5568730124 1.845432981
-0.03685986615 2.290334507 0.8788733965
-2.107067044 -3.893522492 4.41472719
-2.959219191 -2.793594812 3.431781654
-1.629533605 -1.194073751 1.206687932
0.7560403013 5.570617446 3.483492848
0.636013661 0.7853723677 4.987277328
-3.330317574 2.515972872 7.039522077
1.159420735 -2.629239049 2.150539554
-3.537725965 -1.060740428 3.696530047
-3.585983284 1.731306483 3.143941158
1.69037916 2.371647764 -0.05978011201
3.05962611 6.20886739 3.730390175
4.118069804 1.241555351 3.16704536
-1.349403093 2.620661352 6.401847791
4.198154013 0.6265628122 1.440226944
-1.684189569 -1.959522592 5.821277076
-2.2670803 -0.539242669 1.654871722
3.120390374 5.489678431 3.226917284
-0.01004472858 4.507978676 5.670872839
1.181236588 -1.862418487 4.268752609
-3.678067474 -2.305520742 2.139252967
-1.581720746 2.796962841 6.536211069
1.367131595 6.12190369 2.334040572
-0.5978354705 4.645131788 4.300033705
0.09135107676 3.240065646 5.663978181
2.455500998 -2.762394602 3.254270852
-0.02085435741 5.153963512 4.850550853
-2.218919376 2.265178844 6.635857631
-4.387144815 1.21031919 3.089916613
1.48904985 5.517219143 4.336708223
1.220530684 -0.1782582236 -0.2029055697
0.7543036651 -2.073513334 0.04666920925
4.073503533 1.290380031 1.888551995
4.556837487 0.4893498649 2.434392767
1.159800867 6.158805075 1.739672092
-4.583820812 4.028582572 4.15568366
-4.646753003 3.391240591 5.385927626
-2.596973694 -0.9847657342 5.712286826
-3.599078667 -2.468667071 2.344469683
-2.373802053 -0.6478951027 6.226140366
1.708654854 0.2218136028 -0.424914634
-4.140698151 3.537748758 4.499951405
2.46202544 -2.580869553 2.690585314
3.071179072 6.106483939 4.187669134
4.716138707 -1.676950438 1.519311896
-1.335690636 3.360043104 1.608880743
2.927648549 4.802085959 -0.6022963215
-1.280877741 -1.87229497 3.829413199
-3.576525751 3.781996972 7.177487367
-2.958245972 1.865310274 5.122606087
-2.48548101 4.890736622 2.299309103
-1.419105084 2.311793141 2.829210523
-0.02076250452 2.395092536 5.394189145
-6.855727255 1.070726232 3.623562067
-2.308064255 4.784090779 1.329286171
1.375266008 -0.03075527374 0.2656343643
-4.770314666 -2.413271171 1.92974726
-1.011238474 1.204708539 1.39864784
-0.2313515256 2.438762335 6.951669285
2.175491713 7.060799614 6.092971026
-4.9937389 4.633424114 8.650197161
-0.2203456627 -5.217072232 1.328467932
-4.170145853 4.830054312 3.290744213
-1.817565424 4.326148176 5.18587729
-0.5509179067 -2.735940024 -0.5065022223
4.850898344 -1.425970597 -1.254867267
-1.714804394 -0.1229926188 0.1538558979
4.681137283 -0.6845882702 3.878966174
3.617579295 4.928111342 2.461678797
-2.490677267 7.472633516 2.301825961
-4.332302936 -0.7562012905 7.186026915
1.062387376 -0.2220362473 -1.307001633
1.825219881 -3.739556862 3.743251025
-3.346693589 4.970869995 5.46836371
6.373196676 3.127870388 3.748920095
-1.09427005 -3.0183305 3.037347933
-3.269737233 -3.123028748 2.481865676
0.9119977036 0.5357144439 3.45822711
-0.7551411245 2.928718161 6.55123266
-5.479451743 2.406586418 8.134546065
-2.403350727 3.626831582 8.348530035
-1.630867155 -5.12141018 4.391423031
2.180963256 7.128612089 4.447855807
1.589141289 -0.102480175 4.008738132
1.744330537 0.4769761057 0.8623955224
0.8697813625 0.7290612262 -0.1321972656
-4.216712215 4.881339073 9.679346965
-4.962501917 0.5468033594 7.248744614
4.89176446 -2.124454524 -0.5277257914
-3.13051596 1.651895138 2.441616619
-2.908528762 4.50970213 5.43619005
-2.151603089 -2.419552524 3.050109228
-2.429731258 -6.132915591 3.183753107
-4.445033437 -1.951831041 2.645793255
2.402909241 -3.610059113 -0.3919948409
4.624326354 8.266925202 3.846566743
-4.180257914 -1.129679284 7.13358774
4.459006208 6.917911832 2.09041641
-5.878958811 -1.449244173 2.428035077
2.479622839 7.737064616 -0.8565000517
-0.3267403576 0.7079453372 3.298566909
1.974565552 1.742640866 3.686294608
-3.907720151 5.092026212 8.199109944
2.570113934 -1.706916775 0.4500634737
-1.603786915 0.5444817167 3.691824112
7.034791466 2.265075037 3.164390285
-2.074800334 -2.341146818 5.234186535
-2.744362237 2.657171541 6.775620309
-2.25772642 -2.505702662 0.6605367912
4.404400992 2.003980914 0.5158369502
2.542604357 5.606263414 1.279332254
0.6816106541 0.7731030266 2.453372549
4.773905593 5.972897197 1.877800743
4.919670837 7.06265307 5.176837672
-0.6545888414 -0.6560886472 6.763264426
-2.700425098 0.7102083652 1.480255544
-0.5517965656 -0.8617758429 2.859542945
7.382580136 -1.011335894 1.578329248
-0.1304033742 2.422792741 5.856168055
2.899043937 0.6887216267 -0.6773010864
6.411026041 1.963087928 1.767149334
-1.075601941 -5.88111165 5.402530545
-3.441144146 -2.552497632 5.492694974
0.4744539082 -0.1628397626 3.213490668
1.095293102 3.03537334 5.108326208
-0.1526447229 1.935367293 -0.2944601502
-7.014049953 3.639382242 7.037080804
-5.150504291 4.947992164 9.336022863
1.808735462 -3.099677186 3.255055446
0.1674766946 5.695933746 3.97585425
2.380859918 -0.7628182817 4.593322126
3.822727875 -2.393184847 -0.6776770925
4.096132797 -1.708245626 -0.7144123202
-6.900391304 4.033271306 5.107758921
4.299850576 4.455507589 -0.8707676195
1.198607649 -2.959357874 4.312030824
-1.193563313 5.545509801 2.376645506
-1.693076959 -4.309058243 0.01727365813
2.947231323 -3.085060573 -0.8924542342
6.190220469 0.06668361319 0.8542199789
-4.868741434 4.775336728 7.23961451
-3.307562697 -2.874300783 3.395828313
2.114082005 1.392347922 1.717445212
-1.99626333 4.725823871 3.481981863
-2.813421517 -0.6728657152 5.144654593
-3.35260045 2.30669049 4.26192442
2.361233167 -4.070046344 2.586504668
-0.2055524094 -2.445341555 6.37151152
6.042695751 0.3862571054 1.10203045
-2.520948254 -1.763923492 5.103141647
-5.347705762 0.1390685479 2.331571727
-4.542107161 -1.035632787 4.435745174
2.345464102 7.587624086 6.646566445
-4.061681067 -1.620885999 7.944708799
3.486663847 7.048517303 0.4473220315
5.69696804 4.521265302 0.9048585361
-5.10261399 2.104645263 6.147467656
-4.689614613 1.84151194 4.287873416
1.295912489 5.634183124 5.651115458
7.20932453 -3.159738521 1.649610844
-1.772270372 1.73165967 3.682335815
5.027978313 1.759542397 0.5721496663
-3.186758251 -3.997397694 3.186493196
3.924661766 2.758625466 -1.589894497
7.283532828 1.598869129 1.876316625
-0.2881147004 0.6478072307 1.542704029
4.116364453 -4.242265541 1.365143303
-0.6045606745 6.758966199 2.762098148
-0.5604570164 6.591979673 3.091831934
-5.370155625 0.8868295444 3.419640887
-3.82713159 -2.653981857 6.604655905
1.883028206 5.481995981 6.452711507
0.4668451842 7.714219501 0.993494269
0.6530989396 5.005162681 0.5276195449
3.154677021 3.642103589 -0.4649716226
-4.274845301 6.836933823 3.283247281
-3.806153088 -2.193289756 7.548297738
4.365040352 1.116736039 1.971257897
-1.70046777 -0.9627471504 1.437720619
-4.511615728 2.277470482 6.791254257
4.030444683 1.673069617 -0.7374454727
1.396688896 5.102809271 -0.4749122167
6.228662984 4.085010758 3.566037433
1.156374286 5.497000647 4.625610858
-5.590151431 2.961400396 8.095396619
-6.369313663 0.5072413084 4.290857627
-6.471002526 3.643074722 4.686928086
-3.341099816 -3.49483117 5.246850863
-1.032461401 5.524339171 3.560683938
4.087379005 3.388196596 -2.004738505
-3.038640911 5.382078049 9.007318713
-3.212009626 -1.196912554 6.457161143
-4.752487213 2.08834008 2.125033421
-6.849784963 3.264434939 6.172719365
-3.941860907 -6.063959171 0.8925707727
-2.066883001 5.412853379 6.862573327
0.7157934374 2.619816799 0.9508898424
6.025383172 0.3733377222 3.057886827
-4.63753826 -5.073944614 2.763642494
0.08805128917 -2.432339885 0.5557155943
-4.51233525 3.816548185 3.375996434
-0.8722621009 -0.1644731109 0.6448188323
-2.476722779 2.188976088 1.429039641
0.6269015536 -2.959267652 -1.653498157
-4.136802886 0.07203367144 3.484455659
3.535910743 2.115945289 -2.412259447
4.30234743 4.462934436 3.007028278
-2.898386984 2.404631122 2.625921767
1.00737772 -2.631814807 2.946092747
-2.020627926 7.722576381 2.529864439
-2.43389534 -0.8339637583 1.432328739
-5.190578099 4.335809873 7.742561277
7.340983661 -1.58024157 0.2475544966
-2.008923046 4.104218907 2.919588307
0.03400969118 0.1675479026 0.08376215457
7.525843507 -1.614214962 0.8210227304
5.298149105 -1.682285258 3.458969531
2.751538207 4.229381415 5.089525782
3.187247576 1.910372781 0.8518608551
0.2981955618 2.278362005 5.511102638
-5.941832403 2.900819812 3.162101853
5.416696677 4.733644904 1.949908018
-5.835394347 1.773644665 3.242291579
1.929661176 5.610053477 1.103092382
1.063510518 5.070868842 1.641519491
-3.621471059 -4.905461513 2.132047132
-2.223957507 -4.497367025 2.027261706
-5.009115259 6.038579743 5.876087153
1.670488973 -0.4534996593 3.354049906
0.2466892085 -5.317077633 5.278022092
-5.3468471 0.7847963119 7.741815801
-3.68036691 -2.406784555 4.395616832
0.4479474548 0.5415108203 1.502893258
5.285435072 0.2232556715 3.497679724
-5.11648262 -2.46264648 1.68508231
-0.3220783196 -5.122486354 5.764671246
7.014887999 -2.435518173 -1.768595828
2.408566242 -2.421374794 0.8537959322
0.5171327309 -1.535619612 3.375332836
-2.756020266 -2.572926927 1.462640725
3.902671964 -2.398071682 2.295516616
2.694986758 2.309007955 3.886435203
-2.893033386 3.009466488 8.183573826
0.03922403063 2.334656981 2.79401005
-3.010966301 -5.775780256 6.707652783
-0.6876033041 7.060509104 5.283171621
1.135284821 1.120496898 2.542571654
-3.874943501 2.474326231 4.615278447
-2.269996379 -2.085225184 5.197946849
-1.675825225 3.208140207 6.290135811
1.231043143 7.40313457 0.6164154602
-4.570614215 4.124098075 3.945079605
3.988621998 3.891090764 -2.310803011
1.403345476 0.863788013 1.002894593
1.936273815 -1.983847674 -1.591511672
5.936723494 0.2294222481 2.733884263
0.9411414694 4.30588687 3.094865038
5.509253686 5.299412738 2.305950551
3.203398999 -0.1397007928 2.928591284
-6.564546399 1.266681567 5.46916471
-0.3445751599 -3.138460375 5.766279217
1.096788844 -1.378824274 4.250130081
-6.396102247 2.686565419 5.036951382
-3.248587652 -5.730511023 5.972959765
0.3505741734 -2.394556733 1.472923012
1.026472911 3.000020535 1.14361417
-5.072567017 0.03549491504 7.215315871
0.6960902118 1.851178897 2.785432825
5.758507865 -1.842343941 0.1572485259
-4.141172212 4.063269679 4.518438275
3.917737718 -4.819904427 3.325958568
-3.54710372 -3.578597613 1.449268649
-3.65242454 -5.227131171 4.741395868
-6.6044639 -0.4984441872 3.824897032
-4.949014125 1.708411734 3.731655245
-2.832504002 6.424454413 6.68654403
0.6264836881 8.518151053 1.261519727
0.4230487325 5.544301809 1.478495544
2.28486312 3.809332588 2.056079176
5.034623495 -2.215713533 -1.784270075
-3.733759279 -4.176845688 1.373866479
2.206676595 0.5948303248 -0.234773831
4.377509937 1.592928683 -2.638936199
0.003448600422 -0.07435411422 3.430763077
-3.795082886 -2.925383561 0.7596566828
-0.2590113007 0.8698952443 1.544953227
-3.069511951 -6.348439208 3.824103265
-2.639579567 2.616856468 2.580655121
1.332330754 7.837480733 1.921765906
-1.573689787 1.617908405 1.309269728
-2.444206409 -4.193673296 0.4252227022
-2.62109934 -6.358611877 3.466662586
-4.008486672 2.585666875 7.459047351
4.915186087 8.522836958 3.818861068
-0.8818096925 0.4433663781 -0.2740759792
-2.061786226 5.820818757 7.077353944
-0.6154723851 -3.55419425 -0.5044057636
-1.533828136 3.310950158 4.773423387
-2.2102027 1.394356746 4.766917824
-0.1253503755 -2.587685461 5.511291072
-3.681038153 -0.1075994795 7.266970931
-0.9537760864 1.814702796 6.149003946
2.185163907 -0.9010127435 -0.3351753431
-4.419953258 4.041859509 5.863193189
-2.668193158 -3.413977549 1.988731952
-3.26841536 -5.867443959 3.335305128
1.036116329 6.00520948 -0.1091875223
-4.973568876 -1.264538986 3.612145104
0.3923955911 4.376191496 5.939300281
7.604160488 0.1340286145 1.30579836
-3.064302925 -3.843740057 2.623451103
4.12605419 -0.04085212877 4.121140309
-5.719172906 -0.7468133892 5.361182461
2.30917177 3.718747639 0.8751460537
0.3087220567 4.398651954 0.6723554062
-0.5613582722 7.361163799 3.317655933
2.026049692 8.460660119 2.811149651
2.685023838 0.06873266069 -0.978892357
-3.725904899 -3.964395557 1.585736654
3.202387262 -1.742009318 3.199634859
-1.383644693 1.829151715 3.824169886
-6.376639424 0.9252675938 3.167607966
1.169354845 4.086371114 1.626519711
-3.452153515 -0.5250684358 1.519955046
4.541813211 7.840061576 4.181430395
3.041862972 3.501200697 -1.165081808
2.11306897 1.856808503 0.4268451433
2.458190581 6.146797566 5.179938804
-2.032505277 -4.10373898 7.100784854
3.693180106 -2.052502201 -0.2146188436
4.790614647 6.100661782 4.093299273
0.1896223051 4.788395313 1.102262978
4.826434289 -2.91121241 0.4422228518
-2.136860432 -6.263797969 3.632258567
-2.090907443 -2.408926825 5.117860834
2.578665774 1.105715617 1.5993249
0.1517621643 -3.956113476 1.040855683
-2.285873184 -5.071778221 3.6825094
-4.225103856 6.070212138 3.659886214
3.846157112 7.34694607 4.642915823
0.4111321988 -3.919434874 5.335752489
3.843305508 5.145280854 3.430766165
-3.429089741 4.260896981 3.615793027
-3.111239976 -1.574137221 4.806886457
6.895478257 2.923320547 3.143008297
1.966255382 -2.857228234 1.856442858
2.433556644 4.736870758 0.01384051494
-0.07367881301 -1.630948916 3.675541647
-4.487402 0.3966095128 8.668456351
0.6528457575 6.428055282 6.745524193
-0.4965776146 3.835616271 0.2032839785
-1.177297646 1.870023795 0.8625652179
-1.206427094 0.6638760234 6.672573235
5.299918936 5.564459376 3.442892485
3.164800936 -3.833267627 1.687839429
2.898248704 2.146305248 -0.8711552157
-0.8095124001 -2.519276106 5.516364732
3.568314582 7.080323089 1.553714658
-0.2478085139 -3.274137612 2.864095887
-0.3446131693 5.751263649 7.742205081
1.698522503 5.809644839 6.181054447
4.115324191 6.81437363 1.51945718
-1.030652801 -1.340727911 4.211320491
4.228516037 -0.022651495 3.427408194
-3.741604182 0.719382717 4.945804904
-0.01644838538 5.685587175 0.9370917853
4.198940268 -3.11335612 1.547148863
-3.488847109 0.577517185 5.488887431
-4.444230974 -2.610153761 4.963432999
-0.4593352263 0.8015926268 0.3779302709
-1.710531918 -0.4119012401 4.803260367
4.262729618 -3.059981322 2.511095496
-3.463472969 4.963518065 2.741086018
1.545281436 2.787410991 4.8150632
1.793415592 -0.4617780637 2.190302679
4.298170626 -2.906590945 2.411273038
-4.153476998 4.842671229 7.082705389
-5.264589541 4.273314854 7.423912167
-1.557012486 -0.2780579421 6.019327656
4.165640044 4.205361304 2.243349323
-0.5572180762 -2.76168447 -0.1314966251
2.994195986 5.279538148 -0.6874047783
-3.923890002 4.547474055 7.550699402
1.030473997 1.486190436 -1.038851318
8.072877609 -0.8019351767 1.796797379
-1.572447536 6.562095134 6.829052174
4.672843658 3.195945272 4.241949706
-1.585620054 0.1435030924 7.404492088
3.99208311 -1.582541233 0.9810891326
-3.52121879 3.77078548 5.719010079
-2.759331878 -0.8696629801 2.91568585
3.55455548 1.736990482 -0.6313131942
0.74910732 -2.048369956 -0.9287481168
-3.887063173 -0.2826055748 1.824480461
-3.959517509 -3.427213902 0.7688992644
-0.8855376755 4.084410833 2.702029627
5.724924953 1.785344677 3.4925592
-1.60594061 -4.783781312 1.557758664
-0.6634276613 5.575497695 5.173470454
0.266749427 4.693066425 6.948032001
6.066026465 1.608098912 3.427923881
-2.142220773 -1.482229133 6.367551921
-3.248970125 -1.467505874 2.525799386
1.052204827 -2.819264745 3.031146575
-1.172097346 -3.531614044 2.414491241
-3.379748119 -3.241971527 7.446276414
4.333844782 3.297280199 -0.5773540924
-3.593746754 4.113255899 3.043216229
4.963430216 3.192175599 -0.4045740014
-4.171550193 0.3966068196 6.244248822
-0.9373448755 6.421316718 4.535071631
2.229097191 -2.359852708 -0.5092202911
-0.4486363172 -2.637695165 3.262912409
3.622223796 -2.153727023 -2.128034617
0.01197211772 2.840790208 2.583721796
1.082001194 -4.254635899 1.295815923
3.848945244 -1.76518673 -1.374677052
1.228950649 -1.196618747 0.9684455432
3.549790762 3.560391764 2.833579663
3.211662641 -3.833961143 0.03332132888
4.610467929 4.639482752 3.264129605
0.7953622567 1.767273236 5.950490855
-2.643028291 2.891117326 5.937092637
-5.646563395 4.323265256 6.553858489
4.305030041 4.001008475 1.15227193
4.532048263 2.176184696 1.740746148
5.646657139 2.971978266 0.4984224828
7.412842085 0.4094981937 1.359228974
2.748084892 1.704023924 5.487830666
-5.89901567 4.126594671 3.090529561
2.711523738 -3.466068314 -0.2452376353
1.536720302 8.709068454 -0.008647993556
-1.139210668 -5.065629891 5.271125419
0.8634091078 1.737737255 4.773815073
4.359186036 3.3051474 0.3846179877
-2.496832115 -2.755563771 0.3146446396
4.390122097 6.37589012 3.937171222
-4.081876368 -3.900136636 1.967089111
-0.293411402 -4.763091189 0.04176084623
0.02620057006 5.278645592 2.922278594
1.005626947 6.057138765 6.365788427
-2.276087648 0.0399905007 0.9785195188
3.481772643 8.29382277 1.181735967
-3.785299802 0.7770395558 7.328308793
-0.106397172 -3.764411981 5.46212417
-0.2875055839 -2.469342201 4.182686139
6.490849389 -2.045452656 -1.895767861
-2.798961921 1.609841899 7.166714479
4.424780351 8.213912594 4.582721649
-3.826957637 -1.916663661 5.086635588
6.937598657 -1.704252234 0.8567173017
-0.6588543634 1.796833124 3.802308668
4.611139068 2.659668982 3.709182182
3.044931676 -2.204719388 3.807178092
-2.065486613 -3.127676724 6.975922164
-2.912675779 -5.258014415 0.359485747
-1.061147061 -4.771939734 5.434271287
3.680832529 5.859236203 -0.4247367359
-0.02934988698 1.244471269 3.83220676
5.974571086 -3.9298064 2.418898343
1.271289376 6.60999383 5.950353793
-0.2665840938 5.677859559 2.00387616
2.927247492 -1.43555837 -1.707828206
2.728820799 8.802701803 2.049176856
2.688988635 4.034926003 2.948113111
-5.97696209 2.94091914 3.979186124
-5.02571419 1.606860062 5.941518152
2.573506699 5.645887292 -0.5309715856
1.074821075 -3.746658362 -0.6711049986
1.615729592 6.507159326 -0.3089472177
-4.777034639 2.819406377 8.578208123
-4.404156598 4.232670514 2.591169969
3.42200255 4.712181928 -1.478075331
-4.553202713 1.47989755 3.103034403
2.439246739 -2.477728471 1.178873576
3.201619682 -1.164048224 1.846776943
-5.374266789 4.005307978 6.379381431
-0.1346836652 0.7968686417 5.420164004
0.5224704272 -2.304620979 2.752281691
5.970520342 0.08390410369 -0.6489799179
-6.802279911 3.091273605 5.52024463
-0.8248561112 6.823720663 4.341530272
-2.644911126 5.960570257 5.765339781
-1.513795013 -1.198487846 0.9053983745
2.654999718 8.256499292 2.885713495
-3.817515113 4.279062576 3.489752981
2.290647385 -0.6504957223 1.138818892
-5.043081926 -2.487758858 2.497833524
2.697015596 -0.8530861874 -1.645767243
-1.54482102 6.284399006 7.346866506
-3.817779296 0.6034243256 3.910889636
1.678164457 7.476169215 6.983740244
-6.72729828 0.7785966246 3.682534353
-1.230566172 0.2644337132 4.752130981
-5.902041038 3.831421648 5.696706711
-5.895299701 -1.264505991 3.855114421
1.779172679 2.85650895 0.9552978977
1.465133837 1.829353784 2.408980635
5.768454159 -1.771138445 -3.240348691
7.234748772 1.349322412 2.315605567
-2.315124505 -4.641759399 5.470948166
-4.075294279 4.373046361 7.884543099
-4.468830579 3.200674722 6.084685909
-6.089855766 0.6602822628 4.120516603
0.1280458531 -0.1410934394 1.181651399
2.951458512 2.725217199 0.5817557827
-5.637031632 2.215548822 5.033389802
-2.903989528 -3.857885917 6.185835291
-0.5161598765 -3.256663573 2.464816442
-5.974215633 1.363639434 7.116021314
-0.1207302909 -2.490332072 3.737921346
-4.455040228 -0.6252125358 2.863258474
6.168056791 1.997823292 0.9963999174
-5.724099901 3.70576816 4.241238837
5.431313259 -1.74243261 1.336560759
3.617087913 6.25034098 3.280553945
-2.124040297 0.2144935659 2.907621686
-6.860051072 3.878897795 4.180595406
-4.30405187 4.328150191 7.462365246
-1.039339208 5.595355275 7.058063728
-1.788419834 -3.122056566 2.376813768
-4.926856541 0.8022459888 4.064096945
3.070904763 2.626935735 3.448134092
-5.163910769 4.085914561 9.861900746
1.806748771 7.411333476 2.314686239
-1.865909859 1.849722151 5.8319136
2.118291717 6.341795142 -0.9393172016
3.595024491 -0.7290605711 0.08183229608
-5.440741749 5.781563624 5.243707633
-1.958620861 4.211147058 6.582579291
5.231615794 -0.4195282352 -1.894273838
3.896165087 6.892385262 0.2349368526
3.315952623 5.276651595 5.39761058
-3.760038541 1.689647118 2.106513679
2.419716437 -1.389998085 3.080512348
-4.201004467 -1.32928031 8.185955483
-0.1965635917 -3.09921521 0.4734124169
-4.416696263 3.456148255 4.719514695
-2.979849959 0.8363605012 2.255228148
-5.520009573 1.909788052 8.646309219
-1.207579689 -1.871446664 4.99394115
5.074376184 -1.103999121 -1.479821344
6.568485375 5.494161435 3.5356118
5.214337099 0.37869589 -2.006698678
-5.372296953 1.241440658 8.222461876
-1.998023809 -3.378218363 5.898830657
1.268482116 -4.770586573 4.453649454
-2.828842992 -2.056052509 6.011809424
6.320584009 3.174717819 1.53717131
4.536026217 2.946728445 4.623079422
-1.665363397 3.076531157 6.080196185
7.0673896 -1.354545333 1.688723832
0.6389705166 -3.48328835 5.455734969
-0.8099108573 -0.5056040326 4.51808827
6.242173266 -2.26285417 -0.4261499853
-4.030664472 -0.1002886526 4.788096515
4.760635722 1.345989152 -2.439293128
-0.7746391867 5.688131733 4.285961898
-2.206405968 -3.523915272 5.931535524
0.4268595815 0.2067524535 6.162967549
-4.396563881 2.996888655 5.737649709
-0.7190322412 1.464282257 1.171662155
3.305529013 0.1617351616 -2.158812956
-1.281123551 5.870313167 7.374975691
-0.930795443 -5.202871205 1.7392689
-5.97405756 2.956152815 5.523662003
3.669502776 6.145874539 -1.511814803
-1.118134558 5.552218395 3.943736426
-1.997016782 -5.131904251 -0.1075777002
-2.519774369 2.753586212 3.245656826
-5.427750046 -4.775321778 2.599675598
4.605610529 2.193849385 -2.752972381
-5.488385142 3.248070073 9.2272562
3.814868935 -3.599385565 -0.6075421255
1.333627295 -1.910681153 -1.725886358
2.302226981 -5.262739847 4.169166701
1.632197547 -1.854073352 1.364240756
2.212295391 4.286850793 -0.7763733529
-0.1410728385 4.212026028 3.569291312
-2.065012891 -5.431781052 4.905678695
0.44700787 -0.5298031588 6.233373657
3.795316522 -2.637639884 3.584674814
-3.641029162 -3.083616851 2.612759252
-3.691346948 2.396137229 3.839361532
6.008247404 1.577401481 1.036157287
-0.766590363 3.192697076 0.4375228451
2.84791803 -0.921618846 -1.221010916
-4.061230225 -3.580169394 4.43331415
1.146211407 7.943256499 2.577134216
2.906763766 6.711139606 -0.7880873773
2.943140127 7.394882601 0.3426698935
1.916590354 3.081800322 1.561519756
-4.052095321 2.241756222 8.317252688
-2.877982152 1.254139679 6.233424646
-0.9342628287 1.207307758 1.931285673
6.862575347 4.198852465 3.111538299
-3.494724471 -1.688903355 3.211477472
-4.851282452 6.148388038 5.768452645
-2.500054937 -6.924613055 5.591389113
-6.304212849 3.156812082 4.735944177
-3.53622621 -4.044578547 7.692965004
0.5133737649 -0.3620664875 3.304920771
-5.009879967 3.331199838 7.564368964
2.913262465 2.536816574 4.806715913
-0.9241645586 -1.79233765 3.716718534
-2.111563396 0.2813517455 7.285580248
0.7793961157 7.297084946 4.679115712
-2.959775742 -2.766960014 6.45644165
0.47764887 5.503898661 1.105798954
-1.893884776 6.575355617 3.366181172
-3.320459626 4.010919689 7.521732506
3.088265901 2.020341043 3.078519788
-2.116955765 -0.2533021059 4.976678242
-1.068679052 5.21284283 1.042111635
-3.537120532 -5.218871608 3.536498819
-3.082883083 -1.248752445 5.098414465
-3.62982622 4.369338691 5.046588791
0.005233837528 0.8941397646 2.920092843
3.393299426 4.953971081 4.789320271
0.1623863199 0.9096058505 -0.2479597964
5.596429955 -0.2731692634 3.591612137
-0.4839577272 -0.8674790411 2.220622528
1.00596971 -4.949487321 4.916708709
-6.978709665 2.765161046 5.308719228
1.434865009 8.768908195 1.302123063
-2.687076297 -3.14923343 6.986134692
4.912482357 0.262221101 3.16307475
0.3840308004 4.523615266 4.916780189
4.610241767 6.013097903 0.08456489043
0.6149249276 -3.789531299 5.163755895
2.658044748 3.437262599 1.758108839
3.582887604 1.660428216 4.473605199
4.658570953 1.238908244 2.414478862
4.316254029 6.309418467 0.303822313
0.828661127 6.346336168 6.790159353
-4.779544157 -0.8725887292 2.099568992
-4.05200039 4.867799006 4.281839477
-2.681083034 -0.09995210841 5.479049072
2.788457219 7.158807298 -0.920680562
-3.747603582 4.388666367 5.255163061
-0.2974221234 -2.144138867 1.668846379
0.2540388844 1.676238333 5.081786944
3.183185628 -1.032914966 4.435505082
0.6914071375 0.5648140998 6.178884147
4.541614951 -4.324518265 2.287223957
-4.602659628 1.022526119 5.45468833
-1.194526032 7.145828527 3.527209511
6.353554556 0.9224023339 1.188455857
-1.750309438 4.09822441 0.8258088143
1.640065972 3.624795276 1.12760079
1.992278562 7.371453561 1.099976188
-1.76763513 -5.901383293 5.058876558
-2.750604391 0.3405629447 2.708935519
-3.59324467 -3.66560906 1.344745245
1.702462915 6.080146807 0.4900573164
1.60173274 1.22918968 -0.7242646204
-0.8597542627 1.422686878 6.939294839
4.993351499 -0.3621172217 0.1801524199
3.868583146 5.883226698 -1.608357614
0.9234231496 8.658476146 0.9216373373
2.637471387 8.42730402 1.327252811
4.793244716 -0.2723566956 3.399436519
-0.2326072834 6.317782599 1.437182442
0.07094185846 1.220176026 2.003956695
-5.141081121 3.555321084 9.746727485
5.604566738 4.831872785 2.661857436
-3.391711609 -4.363928449 0.4294301943
3.002669624 4.117819388 2.199069861
-3.690648675 1.715239337 3.392753401
1.862912988 5.599742031 1.999789961
-2.749272401 -6.355303243 3.253600892
-1.892760447 -3.744898038 0.05528605915
6.561617507 -1.565959113 -0.5176166183
-3.194795195 -4.235104295 0.2560077551
-2.03848804 -2.082863079 2.874914256
4.62594099 4.16422436 3.562111067
-4.682038083 -1.596297172 5.818737077
-4.984249193 -0.2377469209 4.720055577
3.12871843 5.961855482 -0.6619589439
-1.402782679 -5.938050162 3.876397884
6.261765545 3.197145071 3.072471568
-2.603860769 -0.1322959349 1.075204177
-3.844929396 5.159177779 9.526747194
-2.235260278 3.099316822 8.406352772
-2.857890736 -4.709131073 2.775049448
-2.315369435 -5.517811905 1.084617995
1.148976419 -1.79826366 3.456786464
5.338046241 2.574669897 3.444231141
5.150631191 1.408042983 -0.3529316861
5.484341373 6.770874031 3.532899426
-2.377169009 -5.038875954 6.064084016
4.854091491 1.148277825 2.370974375
1.36766955 -1.340117581 -0.192419522
-0.1257671426 2.13937239 3.081244591
6.254855464 -3.08998396 2.521974594
-3.444683329 -3.254011929 6.108069082
-4.759599905 5.24765978 4.898130273
-0.3778422002 3.886717009 5.191114596
-3.153040538 -1.701222956 3.016327436
1.465579708 6.866813086 4.981452384
4.287973979 5.840973304 -0.4305514131
3.101292971 -1.413742076 1.848681495
0.3407892756 8.017932469 0.9152188927
-2.120569852 2.276393744 1.688370156
4.357137753 5.539054537 0.8367574963
4.371217192 2.618819998 3.384954172
0.6286745933 4.073616031 0.3703711289
2.014845698 1.709971192 2.757540455
3.916421929 -0.2935461917 -2.139429795
4.586326069 -3.197301024 -0.7978917583
7.574116012 -3.217643983 1.901970789
-5.459936649 4.025232625 3.150966948
4.900427504 0.5988145301 -1.171781618
-4.56744328 2.659109498 5.160859495
-4.271013213 -3.525055204 4.321165654
-7.651282829 4.24703644 5.222087735
-3.902508165 3.173440905 4.955206827
2.428650606 6.924304999 5.230744686
-0.03639558742 3.932586566 4.08525479
4.941186578 2.901833506 0.7580331371
-2.608076324 -0.8659442524 2.726145102
4.655985004 3.51876265 -0.9153454808
3.868339112 5.691243129 5.146535607
2.40028644 2.123792793 -1.605360695
3.498464507 -1.826068537 3.969621294
4.024618973 -1.867407097 1.162510343
-2.407711855 -5.155079444 1.438483776
4.809820391 -1.964476592 -1.556134026
-1.992738745 -1.504649469 1.976680418
-0.5126440945 -3.344514746 -1.099648927
-2.332064595 -6.993684174 5.231050243
-0.2482472748 -6.063570272 4.379116367
6.080713687 1.453532259 2.499520979
0.1671312324 -2.80423569 5.152211735
2.779567724 3.32591848 3.406810067
-1.67250905 -1.175436469 1.62975121
-6.44291713 2.638523151 4.573061927
-2.845868308 3.717307422 3.734333089
-4.271585339 5.453142665 5.832251801
-3.946689726 -2.768259656 1.897698225
-0.8160101833 -1.635767451 2.134183311
-4.642475254 -5.347350056 2.821942878
2.236567641 8.255380767 -0.3781373816
-3.876535425 1.655905572 5.532659106
5.082337942 -0.3436061027 2.451957891
0.3381833904 2.836254287 3.306405685
0.215242122 -2.593415967 3.587578789
4.082846253 2.535702893 -1.486898542
-0.8759018153 2.998892069 4.753878104
-1.696302837 -2.135296768 1.890251684
2.581428724 -1.061887869 0.9306884105
-3.113296608 -0.7193807952 7.266419749
-1.66243076 -4.952115113 6.351377517
-5.333528563 2.776410364 8.887420433
3.71046308 -3.44426857 -1.119963964
2.752277901 2.265187266 2.651688278
-4.896561074 -4.273317299 2.908435775
4.555161263 3.3261361 1.00129824
5.942358924 0.03725902205 0.7718495503
-5.26435726 1.584660062 8.644751405
-0.1997972533 4.185616702 5.796657844
0.9616352913 -3.009672532 0.6327788216
5.57225218 -0.9795430551 -2.796491727
7.156999404 -0.08668956499 1.125600607
3.594784331 1.930933378 4.550515347
2.714172179 1.208306913 -1.194829886
-3.721982353 -2.94724801 7.472038939
3.660451648 -1.95657751 1.372423961
1.623368414 3.466928835 -0.02635402668
-1.435784225 -4.83047035 6.58323358
2.703816492 4.107618157 5.214283001
-8.361848062 4.744731032 4.660375302
-5.125609255 -2.522755824 4.675682208
-0.3184408593 2.821161342 5.839817133
-3.781942132 4.731197927 7.599504918
-1.401334649 -5.259404074 2.762703521
-1.807901248 -1.583922723 1.394175539
2.189492696 -0.9089730348 -0.9023335268
2.047401736 4.801211392 0.1662963411
-3.919559459 -4.404866706 1.295317391
5.013400046 -1.913460847 1.883828383
5.506911708 1.821112231 0.8012265365
1.535360678 1.866638946 5.609643054
-0.7728347641 4.699419973 1.648518629
-1.731226775 2.272948553 6.755736863
-6.782096837 5.452414356 6.941923787
0.7065052835 6.354404861 2.915606973
1.710314526 3.262980591 0.7483717925
-2.178100749 3.353821939 4.795058521
1.543411313 6.073829687 3.53308955
4.303863959 6.55742155 3.596656846
1.845252253 1.419327359 2.839604716
1.194726531 8.501127235 2.931431256
3.653882391 -2.76459125 -2.772579759
0.7555808399 -3.348308631 1.45668817
0.04726604272 -1.467097691 6.451990751
-6.243461456 -1.669449297 3.736184455
1.095204599 6.168748288 4.955306488
2.208413124 -0.5772156404 0.06334073972
-1.834300328 3.450979552 6.767116362
4.20957083 -1.208614341 -2.526005398
7.518680399 -2.631395268 -1.129188371
0.8283651423 -1.163661436 1.331013745
0.677704157 0.9870935981 0.7437879116
-0.258424634 1.875759229 3.112407995
-1.186404247 3.696061983 2.869029332
3.870612273 3.073623802 4.928753059
-4.661480675 -4.679344027 4.439472246
-0.1974086308 2.743250045 6.79290747
2.938777674 0.7390989808 0.5630282303
-1.151490089 2.058378292 6.803022847
1.504316817 1.083316848 5.261735441
-2.662258209 0.4397517125 5.277566421
1.870954021 4.953461225 6.310772825
-4.709216322 -3.268039734 3.951161295
-2.195028562 7.229190163 1.936371547
-2.145540716 -2.425454944 2.182854874
-3.094691268 -4.72262743 4.198209333
-3.348642815 -1.851440175 1.207215267
-0.2671439008 1.984224998 5.946757588
-2.029624966 -2.728303691 3.902000306
-0.8753029008 -0.2873722634 0.8505640684
2.834114696 5.878432671 -0.4053091974
3.62591279 7.044818911 3.909311178
-6.144107789 4.172421521 8.145743259
-4.728299182 4.219759881 4.549988742
4.100955281 6.24335603 4.660072484
-2.537736031 -4.399116574 5.190899126
-0.553082403 4.613980115 1.774796377
3.40546126 6.452146693 -0.6620477872
1.46632372 8.300797019 3.401222007
5.293493958 7.81919509 4.446147764
-5.582507546 4.17698551 6.722210736
5.876226893 -2.917848875 -0.2745329791
0.7121249298 -1.096098454 4.681341399
7.292638078 -1.538604394 -0.2388649248
-3.203712894 -3.718849181 7.660723226
5.195217454 3.983777574 3.016404597
-4.835074436 1.702916673 9.622331009
-4.422847267 -0.6829015156 4.86546096
-3.340946006 3.136682179 3.005930954
-0.1658914034 2.527837011 2.315692821
4.324343512 -2.365502015 3.474934315
-4.877446374 4.249353156 4.774849508
-4.565954466 -0.3215604323 7.56408321
-2.680161012 4.950959316 3.237219428
-1.32926819 -4.12208242 -0.2534670033
-3.153779956 3.312528327 5.626862969
-4.620306009 4.989906157 7.08213235
1.293094236 0.9787736812 3.502375557
-0.5037002183 -3.08229189 1.973800823
-6.278137453 1.844117074 5.686651863
-4.82392209 -4.773184289 4.518210441
0.6786242438 4.760222871 5.059982489
-5.376101857 0.6168122898 7.539382844
3.554134875 7.160278189 4.092341425
-0.8737358185 -3.775902226 5.539481544
4.503951358 -2.674516717 -2.743720885
-2.782214224 -1.756262215 2.977060415
5.197565362 1.347785012 1.499105802
6.387238134 -0.407649719 -0.8444748538
4.979294245 -1.472045353 -2.594524318
5.001570861 -3.384602751 1.326417775
2.743155469 0.3733920851 2.906961434
3.685455367 8.507401106 2.124412191
2.082737459 7.914644315 5.830133246
4.180162457 2.537138157 3.120339726
1.702588309 2.611791097 4.9682971
-4.451793664 -0.8009623253 4.500483683
2.485630531 6.868026299 0.1597895993
-1.623901459 -4.730474691 6.374628352
-4.530463418 0.05962184875 6.453921234
5.175798019 -2.795595207 -2.128085469
0.8327764654 -1.298453672 1.269232191
-2.270618633 -6.351028481 5.818852241
0.2367925145 -2.043200784 -0.2608445449
-4.348661358 2.774764678 9.112428836
-4.374148986 4.991603993 8.635311601
0.8452581981 0.8958810145 -0.1457350319
-3.441574846 5.854467801 6.480927313
0.6538754789 6.636664869 3.824738521
5.838097875 4.880911899 1.65209814
-3.182678134 3.978542956 2.356169374
-5.578257414 -6.361470176 1.351130699
-0.5289108364 2.889109356 4.108734089
3.791138218 1.194310287 1.269617141
0.7904825514 -5.583295682 3.595584721
3.636583216 -4.141519293 3.233208303
1.559258253 7.41102535 1.048643318
-2.948459058 -2.870736925 6.966234671
-2.231111366 3.994075165 5.943327331
4.986029639 4.760848243 0.6624156135
-3.545480446 -2.610634918 7.292994723
-5.923332747 2.944848742 5.311391518
2.8267463 3.856967674 5.573836979
3.59104046 -1.964631768 -1.627880969
-2.866585428 -1.466363789 1.260111145
5.809361851 4.569021086 2.074720752
4.20479782 -1.728768589 2.076969867
7.701202612 0.3180323128 2.202099792
0.6917048122 -2.643623898 2.32583272
-5.919436173 -4.396042604 2.681747239
-0.4636494104 -5.055964493 3.297278057
1.418240142 -5.578837398 4.141232446
-3.367586301 -1.150017204 7.380622518
-6.962967797 2.287014689 4.145374009
1.457205196 6.213568924 -0.5494329242
-3.560101552 -0.1014883699 5.340343255
3.014707559 5.43418661 4.619672339
-1.494237342 1.631869167 6.764816257
1.606677697 4.21874482 -0.9656973401
-2.424952839 3.623853587 4.398472693
-1.677454497 0.4965475558 4.874622714
5.884165921 -0.4182287627 -0.1147515002
1.969621174 -3.313755388 -2.39652131
-1.07129555 1.378784498 4.919769217
4.805057751 4.054521151 0.009734156654
-2.210206887 1.320399447 5.548950356
2.437620122 6.385892716 3.484594111
0.9517846661 -1.308468597 -0.1162324565
1.937099129 -4.942870506 3.015001735
-1.227618701 6.731123293 1.024006806
0.5021932343 3.211394156 6.754727466
0.310395002 0.5555128872 3.700776465
0.1076580007 5.431644853 0.7411383548
2.787308885 1.065620055 3.352415977
-4.405149787 -6.103699923 3.357060905
5.025504843 3.473324591 1.065976072
-5.922454359 3.576736594 7.167047755
0.5639447953 2.952723492 1.743958849
-4.068184701 4.473707503 7.790176564
2.448941488 4.400646459 5.712368678
5.690998213 0.8268117611 -1.654744716
0.7605407288 2.275461035 -0.7159221435
3.565168224 7.81301727 5.63870034
-4.218906735 -0.8942944407 2.428445971
-0.2415193006 -3.616182201 0.02510090113
4.364047666 0.4849454815 4.117385964
-4.057282182 2.56847874 1.800177917
4.220718254 7.271896814 2.529039725
0.01774172154 7.010416864 0.2987346044
0.1977160306 -0.2542537158 6.514139489
1.074311422 -4.342783223 0.4088009623
1.769294913 7.260288707 6.259939226
0.6716739335 7.696828455 2.007762374
1.44900954 1.817004409 0.680400206
-0.8292846623 0.9728276501 2.170080037
1.859900363 -4.073431161 3.688663805
-1.519087423 6.56945468 1.901884787
2.295715762 4.687199364 4.632811929
1.628508885 2.498637326 0.8945570984
0.7792264258 0.490664309 4.526315541
2.110953768 -3.581574815 2.19289268
-2.686690378 -2.46324103 7.749730592
-3.185258989 -5.7996147 1.015315779
6.354939952 -0.1198242897 2.341708928
-2.759317514 -6.590682624 3.611779868
2.176233674 1.336775002 5.598976049
4.91640449 -0.09751226867 -0.1915399949
2.397123951 5.747077339 -0.6955563101
-2.901071424 -2.368607456 6.649829143
0.2603975156 2.608963178 -0.09589641574
