# .PCD v0.7 - Point Cloud Data file format
VERSION 0.7
FIELDS x y z
SIZE 4 4 4
TYPE F F F
COUNT 1 1 1
WIDTH 1269
HEIGHT 1
VIEWPOINT 0 0 0 1 0 0 0
POINTS 1269
DATA ascii
-3.554228627 5.006634596 -0.3524310206
-2.42000811 0.1023056871 3.894662927
-2.841734383 5.219884296 1.078385308
1.686613524 -0.8283151612 0.6234176893
2.330632505 -0.9696636795 5.004581473
3.305515273 5.020043004 2.960931969
0.5713657174 1.426681525 0.8719276819
1.889874015 -2.533433638 0.998465384
1.508611973 -2.046376879 5.024163718
2.428945139 1.760377379 0.3178251336
-3.298382768 4.776260292 -1.302260026
-0.1151959699 4.288641774 -0.623951601
-3.635034144 5.076053931 -0.2166082483
-4.155829737 2.484568297 -0.8540116921
-2.760210808 1.096875667 3.627549476
1.604013818 2.755098561 4.009228763
-4.273002635 3.448508401 -0.2164913255
-3.824007658 -2.332230832 4.073039794
-2.185337022 0.8735489467 3.795119256
2.612580095 -0.9199343154 2.250163514
-1.016761657 0.9950473918 -0.2204480249
-4.204312246 1.633715811 -0.7957422905
-0.8178897693 -2.922757604 3.363013103
2.307430257 -0.8376655504 1.140110548
-1.225344871 5.035541336 -0.07326292089
2.822798272 -2.356172091 2.409788282
-3.745748418 2.09219827 -0.9475097815
-3.210735048 2.170070461 -0.4940369764
1.780199387 4.583001607 0.1800366821
3.414706982 3.91798983 1.727843701
-4.164502368 -2.666331802 3.709903385
-4.227445207 5.533362455 1.790307228
-1.410062813 4.811150031 -0.1078161493
0.8677777469 4.45022426 -0.306855809
-1.156575143 -2.211202417 1.409318289
1.735297834 5.13263695 2.536414338
-0.2859360638 2.375726809 -0.3101861429
0.1300853557 -0.6523046125 0.3005889213
-3.224715953 2.560572256 -0.9442419296
-4.937007579 0.10501308 3.120371804
-0.8085073576 2.538933049 3.780223856
-2.778828397 5.496420458 2.601914222
-1.001180757 4.843772817 -0.6513485856
-2.76582391 0.3407395454 0.1728826734
3.090379209 2.87379156 2.893818701
2.745949181 -1.123894022 4.575037403
-4.77982285 -1.837688549 3.783771575
1.661113269 -2.639029196 5.180189483
1.283390321 -3.118396193 0.9844422704
-2.29394082 -1.34920993 -0.04413296181
-0.1895185677 2.486719625 -0.3408266257
-2.938552486 5.350672603 2.381483913
3.266677227 3.837993917 2.442794952
0.09550793206 -2.298821755 4.829103643
0.8233093151 -3.242359901 1.271203465
0.1496530555 -2.953693848 3.554764899
2.978832673 -0.1374478972 3.846026589
-4.716359054 2.002396713 1.800262128
-4.238419193 2.675805351 -0.4943110441
-2.69000286 5.499036618 2.721440185
-4.294942459 1.934049884 -0.2667083925
-2.634577101 -2.743988411 0.241435994
-1.854096332 5.222442375 3.100721803
3.143838847 0.8326053032 3.303899962
-0.5445591232 4.101425836 3.561155113
0.0307137636 -2.511265164 0.6203248131
-0.6355906011 1.291062538 0.7222712702
1.479489873 -1.249175695 0.668092231
-1.748232623 3.641639216 3.380965718
-0.1669741064 3.848367971 0.6971858842
-2.072196437 4.976895995 -0.08005835077
1.079670673 1.322388922 4.346321737
3.29047485 1.709076695 0.7105722424
0.4552432597 -2.408658703 0.6771423539
-4.184462391 1.837436361 -0.8305784628
2.679735388 4.650851032 0.3146509062
-4.496530843 2.672310902 0.8101635308
-3.043573677 5.110494031 0.638955994
-3.711656777 5.480075306 2.6754675
-0.9401198058 5.106241318 0.4734073312
-1.687159108 -1.607603934 0.1362980211
2.321988134 0.1769985861 2.201638444
-3.384354867 -1.202647344 0.1871963234
0.7581742587 -2.934237489 3.066361383
-2.014262851 5.453676081 2.459693947
-0.6791683552 1.58703202 3.945714177
1.469481464 -3.158694593 2.011368213
3.077501157 -1.950325928 2.938184684
-4.775923905 -0.8521870478 1.678849789
-2.634835892 -0.4768060307 3.967738721
0.01812199684 4.819309601 -0.6840305909
2.047653209 -0.7887122662 4.903434667
-1.013517913 5.343655152 1.940173247
-1.402868658 3.964742352 -0.8182060437
3.435296893 1.567506156 0.9278841267
-3.439554555 4.963085781 -0.7277559101
0.5978824769 3.580627169 3.848035685
-4.070643487 5.495871678 1.524977522
0.8464269944 -2.795054411 4.737651976
2.870625444 -1.131895346 3.469663249
-1.280722421 0.1697995313 -0.1024039841
1.665657034 5.259935058 3.30038056
-3.328948761 -1.105799182 0.3567211772
0.2807701541 5.087436723 0.6907762464
-4.113887037 2.78079155 -0.909393576
3.236543373 1.348907942 2.883161189
2.585271723 -0.009596313763 1.355860159
3.389690191 1.796307172 0.7779416101
-2.975413127 -1.480517223 4.084082267
1.753533268 -3.216971917 1.751319507
0.1639126539 3.927067515 0.7618709015
-4.923057752 -2.466013136 2.36323142
-0.7991760519 5.154435591 3.291011332
-1.584801143 -3.231189186 0.9753143462
-5.029366036 -2.478360491 2.88049703
0.5873304465 4.478863177 3.668645999
2.837644341 -1.308344437 3.598969399
-0.9209256357 -1.142440332 1.191856879
0.2364851683 -1.827269161 4.739876081
-2.010810732 1.25332667 -0.4767105799
-1.214964161 -1.056619271 3.98637354
-3.321692068 -2.700682745 3.678624979
0.9413205412 1.048721287 0.1537828503
1.961520147 3.955156631 -0.192465345
3.321233651 5.136929591 2.941263543
0.9471746093 0.8343188592 0.5612575528
-5.022676743 -1.146493176 3.262150174
-4.189839314 3.368643086 -0.6692371716
-3.037395739 0.8778832411 0.4954216487
1.394604375 4.206427105 -0.3373748303
-1.881482542 5.182670347 1.704341103
-4.847926206 2.456460766 2.6311509
1.319271342 3.476443296 3.996715508
-0.4896033428 -2.968236167 0.7276820742
-4.597442514 4.082943273 1.556558429
-0.2710025586 -1.723563149 4.653062681
-3.915623822 5.434091972 1.262265425
-4.415065548 1.786625922 0.2595806272
1.771582835 2.279757656 0.08738369255
-3.724451315 -2.193979956 4.062676545
0.0243095629 4.490775974 -0.6348632964
-0.3825643025 1.248681008 4.086856025
-4.053843978 3.92050781 -1.110578928
2.403822401 -2.805890561 1.173657976
-4.113530918 4.978532839 -0.6815183557
0.2918862223 5.334264218 2.980056304
-4.152712269 -1.534761801 3.85177657
2.327489398 -0.7277133368 1.117778459
-4.766574171 0.288353542 1.916172278
1.693489335 2.787479078 -0.02901934771
-3.400642758 -2.930005461 2.448739297
1.665220815 0.4158545945 0.4122907737
-1.092937003 -2.950834823 3.055950818
3.252159739 1.932352784 1.224975025
1.104535111 -2.937210343 0.9017856132
2.761162892 -1.640443236 4.058379493
-0.7009662926 -2.575747824 0.6358581721
2.501126179 -2.831516638 5.072215868
1.762976499 2.03693182 0.1109360925
-5.109532075 -2.298485481 3.65403884
2.851067512 -0.3794146012 3.218724606
-3.897236583 2.124718967 3.248380713
3.243240235 4.079305898 3.228754832
-4.357899788 4.160395343 0.3526886084
-0.7387278983 -1.6012972 4.530964516
2.997301045 4.559383602 0.2038078428
-4.651676038 5.067261773 -0.2853505255
-4.645450574 4.647986077 1.837981587
1.367454576 0.1247274895 0.3963198774
0.02092442835 -0.3472119625 4.464980004
1.440281549 2.27827224 4.231619224
-4.88987753 -0.9680769862 2.327772357
2.030650599 -3.139545112 2.228662109
-4.867153013 0.809441379 2.411723612
-1.009341495 0.6616795167 4.099423878
-4.6618344 1.610623674 1.379574227
0.06892774103 0.3210747074 0.1125305242
-0.3371745117 -1.89868534 0.5447741519
0.8354154427 2.435973638 0.3508730272
-4.254731639 4.364599588 2.782334974
-2.653866612 4.029687969 -1.091949177
-3.098425622 -0.1181377779 0.4492485042
0.5387024007 5.16805146 1.247356574
-2.545994525 4.229752709 -1.095030231
-2.631445562 5.380849566 2.332149746
-3.081389135 5.268324272 1.232241695
-4.268322921 2.762307071 -0.2070750171
3.225755661 5.096784085 3.364113558
-1.400259072 -2.572830441 4.183068072
0.156991828 -2.987567042 2.556989814
-4.996377652 -0.6838903433 3.39888674
-4.159198107 -2.740261419 0.6188452991
3.159052722 -0.7029329959 4.038847203
-1.151954085 -2.854981747 2.951613889
-0.9448831904 -0.1262550118 4.23647972
2.477889909 -0.5766164461 0.7909826796
-3.851963377 1.994558661 -0.9507058793
0.5767645444 4.678914925 3.635923279
1.313975179 -0.6429098506 4.597052361
-1.140771059 3.120431831 -0.6176285331
3.591574998 3.892919944 0.3186879196
-1.011151617 -1.27166187 0.4417795784
0.6220647448 -2.911466901 3.302345617
2.830806371 2.665084648 4.414418631
-4.097539975 5.635233461 2.567086189
-4.771866845 2.831932018 2.681362424
1.631969341 4.862747324 0.5387327982
-3.236685022 -3.27424171 0.3989770696
2.442292076 0.1384594117 2.132882504
1.301574382 -2.73417694 0.9106322241
-1.86725403 -2.518195587 4.48742394
-2.595421086 1.766955409 -0.6760125575
-1.131869476 3.476275931 -0.6751377258
-3.807236953 3.189583234 -0.5244266057
-2.398429605 2.067357119 3.551633918
-1.582187664 1.936371302 -0.5027556213
-4.419247737 -2.280927098 0.05337689129
-4.327021101 2.597845439 3.064994693
-0.4670052363 -1.598550713 4.592566187
1.585373304 1.388060933 4.422132632
3.293369803 0.4709914653 1.828354979
-3.579687549 4.121892345 -0.5259485904
-1.869952352 4.131449774 -0.9312471801
1.234632935 4.729690138 0.3383259441
2.756833055 -1.092097287 1.367323064
-3.616623191 1.912282658 3.333486969
-3.021083911 5.188510287 0.9474209963
1.230899553 -3.193504219 1.767759802
-0.7845523859 -2.900012154 0.8887227871
-0.3371994911 4.287452756 3.538443459
-3.415781343 -0.1805012618 3.736896668
-4.60689225 -0.8504313105 3.652204672
-4.688466973 4.424325924 1.999516828
-4.776522366 1.353633767 2.007322117
-1.41660147 4.952495958 -0.4874448424
0.9480892804 0.7323101575 4.434029638
-0.2091428355 4.738961083 3.505490889
2.498768019 3.835608184 4.160032986
3.12299706 2.8885603 2.798110611
-4.149072725 3.229631728 -0.7950675387
-2.425901234 -3.198207545 1.133206443
-1.292226479 1.318066239 3.54029448
3.297152812 1.049068792 2.040692571
-3.519718374 4.847399386 -0.481598159
1.615260967 1.490509817 0.1903575065
-3.821059044 3.956646543 2.783596833
0.4108163461 -2.210404009 4.85717244
1.29911714 4.908965551 1.035766243
1.228920101 2.29293557 4.21818497
-2.627033708 -0.7902921448 -0.1925387383
0.2629643372 -1.997203314 0.5677541425
-0.218606984 3.024108522 3.804613241
-3.894302862 4.712788662 2.774693498
-4.759537349 2.097606404 3.07037745
-1.312607697 1.383495046 3.536065755
-0.07878777188 0.8263788604 -0.01375284005
-3.097799231 3.061204249 -0.9945377216
-0.3445655396 0.9190468387 0.08015901593
2.891132482 0.3079799402 4.37750609
-2.592860188 5.038176661 0.3410412489
-2.865137937 -2.872535398 0.3806018475
-4.861449635 -1.281718778 2.173053657
2.102612577 -0.3642001441 2.250024208
-0.4500568649 -0.9209638059 0.2445768735
3.182643576 1.666125827 0.4990738686
-1.130494407 -0.3352114266 4.200321417
2.923728635 2.062502854 4.475799284
-1.914470307 5.358851847 2.525246483
-2.961195401 -2.9713619 2.340558099
-2.569158343 -1.032108285 0.008772933972
-3.929442456 -1.761280339 -0.3026221898
-1.012457914 -1.613199189 0.3166976082
-4.123239253 5.534889739 1.824673836
-2.662911206 5.03885938 -0.09905727472
2.511854728 5.4802529 3.769408543
3.378941018 3.212103219 0.9658726817
-0.9093511544 1.821384574 0.6000361961
-0.2683782484 3.190911789 -0.206161265
3.181611388 -2.131066868 2.062105229
-0.3785219337 5.253869218 2.28858149
-1.13383087 4.976846333 -0.4996834449
-3.093450379 0.473952276 0.5493425214
-4.725496356 0.8607537379 1.709011873
-0.4359762692 0.9302974421 0.2866925407
1.243751295 5.143307967 2.029099701
-1.175201158 -1.744843033 4.136694668
1.889469834 -0.2614390523 4.794509315
2.202685851 -0.7772426654 0.7262917532
3.197001188 2.42380344 3.340744057
-4.245257825 3.158500202 -0.5070263508
2.798321924 1.954969344 4.266625389
2.444272546 -1.188731636 0.8876026124
-2.836860563 -2.450430302 4.281291737
-1.877158128 4.925592314 3.135438365
-0.9476138945 -2.152779945 1.224918213
-1.753782433 -2.379581506 4.460429234
-1.413975913 0.2534477466 3.811397592
-0.777572571 -1.419169967 0.8184662378
0.52231113 0.7297460127 0.127761056
-4.904632955 0.8728589563 2.921770683
2.192273923 -2.981073055 3.466737097
-2.599275874 -1.761970051 4.208765715
1.088186545 -2.431781274 5.009069032
-1.784299795 1.061396618 3.842491787
-4.732401104 -2.608012346 1.296442535
-4.543216081 -0.9643445725 0.5035789251
-3.016298347 0.6286630906 -0.5263802099
-1.185241073 2.526333371 -0.518344157
-2.263083549 5.337042358 2.219783719
1.413397641 4.162251948 3.895022823
-3.436525286 0.9861032189 3.539963074
-4.496467567 3.877533947 1.001148897
-4.467818435 5.096196159 0.9861304035
3.555824659 1.947196519 0.8920100831
-0.1750519705 4.586422093 -0.6648666771
0.06081585931 -2.852684901 4.072092105
-4.855832891 -1.402893868 3.690384103
2.444779091 -2.98043302 3.305990854
-4.284494158 -2.794868807 0.2799280756
2.111143778 -0.3334290292 2.126896987
-1.231683656 -1.363984318 4.031605968
1.960820925 5.05941083 3.865143045
-2.91981285 2.189767794 -0.2179678476
3.101841392 3.928986619 2.712038132
-0.3059205703 4.464033382 1.413732548
-0.6862935544 -2.754358518 4.186224866
-2.218664186 0.1967578211 3.917863151
-0.9782701579 1.511107851 0.6449824083
-4.646162977 -0.8747477373 1.083337609
1.552789294 -2.335749159 0.9031979602
-4.702743958 -2.43847173 1.256991833
-5.084870664 -2.056687171 3.588258316
0.9324057436 -3.181671952 1.697102358
-3.456822053 4.282499069 -0.4961990644
-4.631273104 4.386903657 1.591465369
0.9723152212 2.032130699 0.7655692553
0.7865827303 3.405658909 3.946836244
2.749305193 4.18492738 4.033009619
-4.635494054 4.129158304 1.778231046
-4.169245519 0.9996136642 -0.2359275265
-1.47355143 -3.052330584 0.4538582801
2.953558371 -2.759492113 3.68525873
-0.1517386065 -3.053147147 2.054333541
1.18816613 1.915295344 4.289887728
1.240050984 0.6120615843 4.512143809
2.973362556 -1.4499972 3.029895764
0.3625915377 5.281030097 1.919592948
-1.734721772 0.07976941379 4.040996773
-2.37246494 -3.06924983 1.947143854
-4.58295391 -1.78919007 0.8485396507
-4.485933282 -0.2898977536 0.40766788
-3.799660636 5.483995613 1.666104755
2.90468597 1.294097283 4.485540887
-0.8859339121 3.94937829 2.904590627
2.851478267 -0.5732493489 3.68028992
-0.9773481385 1.610465119 3.678759543
1.461685506 -2.930932896 4.146383428
-4.050055056 4.660196634 2.787561279
-2.145746699 5.46203988 2.287421346
-1.923253409 1.435560438 -0.4755549612
3.041542891 4.97335853 1.599262564
-4.373723034 0.03689927329 3.527945823
3.319146856 2.931583134 2.10611297
-0.202134161 0.2394786515 0.07697232516
3.100369532 -1.891014107 1.097423684
-4.180852552 -1.816597682 3.871376123
1.637180587 1.881240423 0.1261245266
-1.667269404 5.122321973 3.161305289
-0.912848433 2.131551177 -0.4232412045
2.831136994 2.155497093 4.06550168
3.149556469 -0.8017014183 2.733274766
2.493641138 -0.1779370086 4.914148081
-4.738298722 3.14248459 2.522936066
-4.674585574 4.846160238 1.823508063
-4.97442366 -0.2706539652 3.084114178
-0.7279561847 3.402832847 -0.5651103983
2.976641595 2.941540425 0.1978594445
3.367990168 2.964962605 2.104905027
-3.741386014 -0.9219094928 3.824201065
-1.268319779 -3.088822565 0.6333409144
3.494749445 4.439748468 1.351224873
-4.187754163 5.580481204 2.012379572
-0.3216126978 -0.9130980075 4.489685403
-3.26806693 5.298176794 1.410236602
3.243841729 1.754695197 2.810815663
2.116086398 3.550997512 -0.05382417894
2.602823604 -1.029014423 1.646880742
-1.069500662 0.4115962613 -0.1385096866
-0.6721491899 5.32272568 2.831371148
-3.807884253 2.844782452 2.962547378
2.061370279 -0.7102991506 2.190003714
2.842061703 -2.788208175 2.216776415
-1.683214439 -1.002825792 4.24796545
-2.247281656 -3.167833518 0.2931708675
3.280411854 4.232114022 3.0002095
3.122004682 4.250167913 3.708361396
-0.247980343 -2.902300735 2.968046584
-2.227739801 -0.4052211037 -0.2040036562
2.923017697 -0.9514330486 3.263470316
-4.669735192 2.35520938 1.54612464
-3.839817213 -1.312298823 -0.3616638917
0.8946376199 2.497597366 -0.1204719393
-3.803996898 1.168454209 -0.01241372063
2.8041571 1.849491672 4.442428918
-0.1905750065 4.295050551 -0.6409096616
2.901408971 0.7354524416 4.5138022
2.728138313 5.001870066 1.608135408
-2.046041475 1.377407471 3.731369575
1.385832095 3.781574577 3.946435541
-1.278009314 1.598304846 3.499811545
-1.347059957 -0.8010272727 3.688597063
2.832328659 2.315272146 4.076754834
-0.6563268604 -1.476773076 0.5718026388
0.9482944068 -3.098795121 2.095884057
-2.74965997 -1.424092792 -0.129957843
-4.899922621 1.656062925 2.783403779
-0.1603507794 -2.897309406 3.092112522
1.658169493 3.858708522 -0.2215882811
-2.699730061 5.057469227 0.1145300601
-2.862593149 4.339736703 -1.173043868
2.030090793 4.717329104 0.5167958212
2.586892108 -2.247668905 3.524949106
-4.559985116 5.069734311 1.410973483
-3.927735412 3.412270394 -0.2557257407
-1.636512599 -1.017638565 0.03354955498
1.494920761 1.349387988 4.426255769
-1.074937359 1.603244644 3.453663121
-2.377437362 -3.258599227 0.8481557577
3.342151735 3.325494564 0.787993938
-1.087174933 -2.491567443 4.621218439
-2.85509091 1.111141459 3.623779806
-0.1757965279 -2.023206834 4.711113035
-3.287172528 1.870855664 3.397740254
2.635760611 -2.606823041 1.159970873
2.08126677 -0.5167286413 2.280515638
-0.4185731301 0.8488049963 4.16233958
-1.331862079 -2.571421329 1.335236345
2.964261143 -2.14300964 3.719456241
0.6363390083 4.78358072 0.3025757201
2.10778903 -0.01262424068 2.484671022
-3.748795844 5.540592935 2.087495474
2.912562708 -0.1971607637 3.322512765
-2.447235324 -3.112397526 0.2415031821
0.2928884419 -3.078016573 0.789522454
3.297605341 -1.378868947 1.73188552
-3.131564634 4.84544533 -0.9706153965
-1.67505376 3.289083123 3.472102992
3.226972666 2.893839095 1.989662227
3.027418749 -1.697570552 2.893089352
-4.105146128 -0.4230448112 3.646507616
-0.9684713978 2.629325092 3.692267926
3.140068897 2.366571936 2.583351657
-0.8444487339 3.088587323 -0.5394851949
-3.23389824 4.594247507 2.93329314
2.226858912 -2.99471425 3.27962027
-3.682108014 3.220785396 -0.5189919725
-3.708513647 -2.866319485 1.927617749
2.824453418 -0.6984691354 3.913523024
2.689911724 1.071060585 0.4689625341
1.862649559 -2.53208539 5.189386889
2.404410618 -2.373788193 1.048291662
0.7611612979 4.803521616 -0.2998140918
-4.611505566 1.417577175 3.224578883
-4.679438602 0.1167851291 1.525999745
-1.448008692 -3.02489492 2.020585274
3.050681996 0.6826660779 3.682321441
2.954697051 -2.635001321 3.653117277
-2.118965765 0.1872522738 3.933796586
-1.11283918 -3.15340602 0.6704643164
-2.962560907 4.24796674 3.056790396
2.785925381 -1.993857118 4.537868835
-0.8918363966 1.337488398 0.1976125963
-3.895840815 -0.4017722073 3.697991132
-3.810183851 3.834521273 2.785786437
-4.405527506 -0.0236432589 3.535296425
-4.178466595 3.076605366 -0.2437357878
-4.526052187 2.984413831 1.056550651
2.9740945 3.681422697 3.653744348
-0.6329872299 5.022537701 0.09851109889
0.5495082679 -2.973865149 3.55940605
3.425767475 1.722808097 0.9117523931
-0.850973923 -0.7863967469 0.1193933124
-2.761565697 -0.5964452351 3.947947801
1.501466339 -3.262936724 1.39757328
-4.278146528 -0.4601331189 3.646154938
2.730647151 -1.640198245 4.452999634
-2.623874213 -0.3982189074 3.949967999
2.913462338 0.8104096242 4.282841007
3.189100976 1.8054946 0.5122108015
-4.712678867 -2.610390827 3.477835063
-4.415004632 -2.629910168 3.951296594
-1.016685825 -0.2243313211 0.007120703198
-1.581897807 -2.568006945 4.297888777
0.2277787786 2.603404336 -0.2564959532
-1.178322737 4.601361362 3.202971345
1.65591778 0.1103352438 0.4641595177
-1.886683654 2.363526553 3.591293918
-4.442491461 3.373647756 0.6654865086
0.08630454884 0.02547077302 0.1533122422
-2.983467233 5.187392962 1.353039078
0.368463823 -0.02244171259 0.223037478
0.8379321486 -0.2504898553 0.3681716679
1.368185899 1.985247968 0.05222726351
1.492363502 -2.343048722 5.089634935
-1.775152706 4.712826987 3.199930536
1.50827996 4.572491858 0.1213779384
-1.190273415 -1.398521183 4.395994681
-2.688060201 -2.16630341 0.03514786219
2.737729151 -0.5664255845 4.355689238
0.3795380379 -3.133891236 1.882997491
2.333545277 -1.661379865 0.9181347305
3.233273481 5.182680758 3.336789605
-2.66677434 0.8727438362 3.71548787
2.870962782 -2.460506261 4.216206858
-2.156875984 -2.731866554 3.91787157
-4.219226087 5.173701931 0.6936852551
-0.3568443105 4.569572708 -0.7344447631
2.714338563 4.334337529 4.126202833
-2.995798743 0.4164976816 0.143748696
-1.197752591 1.495475668 3.522070039
3.164781704 -0.6938168313 4.018387702
-2.933905489 -2.414050362 4.272740678
3.383242565 2.93232815 1.926150287
1.471640661 -3.066280378 2.61475289
-1.24215625 -1.856384853 4.071508327
2.500682496 1.477398769 0.3808679981
-2.809291924 0.112505469 3.822236673
0.8836779032 4.628940791 0.09287284937
-4.101065021 -2.765219476 -0.1366480318
1.486529353 4.432403893 -0.2586240492
-0.9938408878 4.935731727 2.801858575
0.4697415422 2.912612116 3.957252034
-1.762209238 3.455231252 3.42240016
2.103093077 0.1096402475 2.525532126
3.026112834 0.2817672603 2.66427789
-4.466907037 1.263859789 0.6264067661
-5.055588994 -1.9561383 3.50627783
-1.303469837 -1.281750545 0.7984941013
3.247837645 2.416253053 2.166020076
1.981590581 4.875525715 1.275596061
-3.717813195 -2.563963615 1.493821743
0.2735197395 3.593221357 -0.4314341321
-1.22845827 -3.076564692 1.755399197
-2.844429166 -3.168710073 1.147063421
-1.132880314 -1.411185199 4.439581315
-1.374388707 -1.466835876 3.807354934
-0.7033492806 -1.198428742 4.473232155
-2.209435693 5.178794886 1.336951663
0.850535776 4.729453447 0.285391631
-4.377194988 -0.9214206911 -0.1748788006
-1.298131261 -0.06139945154 3.689233776
-0.1448083181 -2.283455832 0.5312882033
2.941548926 -0.9972123978 3.061891076
-4.193603731 1.58486274 -0.8693722887
2.394042829 3.210910047 0.03326571233
-2.938104098 -2.98020787 2.245925159
-1.263888604 -1.33315608 0.6329208716
2.649774667 -0.5548418006 4.531617202
-1.42058383 0.1684167199 3.940464856
1.431713522 -1.545377283 4.914281474
-1.450603865 -1.014837494 0.07450654792
2.933092788 3.532905998 4.201039448
-2.167493614 2.218579226 -0.6673158879
1.495475654 4.930811325 1.186895408
-4.71747304 3.428110673 1.956487556
1.269386141 0.1073731851 4.415001127
2.105161362 3.422407419 -0.06263441021
3.485000345 4.984070484 2.098597346
0.4809584246 2.312007065 -0.1551479298
3.339664046 1.189044358 0.6770265967
-2.112913166 3.916560176 3.258857838
-2.906113563 -0.07536865077 3.834518487
-0.8387485009 3.716572743 -0.6521119923
-1.883294793 0.2678096186 -0.2519616298
3.210500664 0.04815743242 1.35725645
-2.408442441 4.666296547 -0.6997280101
0.190074895 5.246004583 1.570195553
-4.133023831 3.387400734 -0.9071252908
-4.482907041 -1.586150782 0.4596443931
3.103498425 0.1444682007 1.843364447
1.644132742 0.6076294031 4.588657799
-1.122446827 -1.531592369 0.6855147218
-0.3744006503 -2.301771888 0.626739432
-3.88006128 4.314000682 -0.1343834019
0.9901394245 2.878656968 -0.1729634807
2.944268214 -0.8899013969 2.500174514
-0.3079444804 -1.140042598 4.552128049
2.225366796 2.572892899 4.345290837
-0.2408573669 4.156949423 0.9675868309
2.934894769 4.96733196 1.658958792
-1.154276993 -0.6084164525 4.247108804
-3.277472962 -2.848130283 1.225619254
-3.474793066 4.440944577 -0.3274749077
3.420837701 1.385993338 1.367320147
2.50534995 -3.122048569 3.522807501
-0.3421242404 1.290701016 0.7919523916
-2.509744525 2.068165128 3.522187668
2.139938532 -0.0006177830198 0.549073902
-2.14855311 -3.249211365 0.3514477302
3.446239801 4.840804589 2.30023299
-1.392097169 -2.67858906 4.133258215
3.1298113 -1.854048175 2.501540673
2.379973712 0.8360761676 0.4842570764
0.6633953392 1.674978667 0.9151408207
-2.362907763 -3.180292929 1.265098137
2.426308366 3.568180523 5.54906429e-05
0.1647710692 -1.519968852 4.666118038
1.229790261 -0.1797379869 4.498320313
-4.743559684 -1.219349599 3.706289815
-3.236802754 4.679745523 -1.004374973
-0.08616122067 1.538485325 4.095798738
2.653692277 1.588370952 4.597274567
-1.434826119 -1.30917395 3.974766052
-3.107732143 5.451502374 2.306499843
2.15515511 -3.000227472 3.253132019
-4.675641229 1.718825414 3.166747129
-1.911407428 5.250518158 0.6053159218
-1.451291216 -2.038464439 4.034767704
-4.741507149 -0.9718631898 1.613416839
3.375919851 2.44907598 1.675657851
-2.603606571 -2.370083702 0.06386735621
1.390361434 2.467889934 4.040934875
2.979820403 1.267542443 4.090542677
-2.491486192 1.772493355 -0.6375180231
-2.421690177 -2.958653836 2.651391592
1.86778139 -1.670862707 0.8201329799
-0.8554848729 2.71379895 -0.5141181441
2.666711838 2.650452861 0.189121177
0.1174013098 -1.0402885 0.3647175986
-4.312722255 1.529426057 -0.3023191894
-2.699126339 -2.708866094 4.002423046
0.6597970587 1.434045529 0.5143861286
3.161629097 -0.8211335944 2.741774803
0.9539142197 2.604051944 4.103812957
2.491783413 1.2854619 0.4078373288
-3.757371275 4.14785701 -0.4629621067
-4.549136519 3.463670755 1.269393831
2.612415978 1.257673286 4.469223114
1.825075991 -1.453851335 4.980748977
1.359942418 4.965463239 3.748093474
-4.283174785 1.517121523 -0.3966923828
0.9462902868 2.107146941 0.6498886233
-4.650586551 0.2768973771 1.307836114
-2.635027822 4.71690561 -0.6469133331
-0.2961476857 0.9219114172 -0.009584284966
-0.06254081825 -2.62779143 0.642753519
0.6170368226 -3.220934801 1.223309096
-1.193953822 -1.531837091 1.256250624
-0.3166672145 0.008293910498 0.09996829959
-4.368662304 3.213061274 0.2086069938
-0.5918840024 5.529071079 3.043165465
1.170480665 0.4802369046 0.6618832818
1.286697316 -2.792908331 5.017561594
-4.520279298 4.218721183 1.138274138
-2.03364538 5.462735431 3.00956608
3.126109175 -0.1674719966 3.136225847
3.061259284 3.981107873 3.107572853
-0.5172097163 3.598954343 -0.5894500661
-4.617841432 4.877207269 2.132366367
1.425644165 1.714916707 0.1299515334
-3.727988658 4.482929039 2.826778272
-3.451771783 -1.068049317 3.914133491
-1.319770113 -0.2159311978 -0.07182879368
-0.8427241932 5.491885049 2.664491378
-0.03818604816 4.84795142 -0.4489193706
3.036639362 -1.30101982 3.042883919
2.157499404 4.960688278 1.495672283
3.159326649 1.981477214 0.4649630056
-1.123126486 1.751038868 3.269363752
-3.995879298 -2.823217635 2.834487953
3.393033199 3.50183708 1.604399995
-0.01327724446 1.587518294 0.8140655306
2.536881986 1.76635701 0.316026718
-4.500882401 3.039290459 0.8411258965
-0.6344322339 4.298856005 3.513673589
3.181842385 1.288370698 3.108442889
3.309957089 2.841930027 0.807344981
-4.684269492 -1.607855664 1.519804188
-4.098913754 -0.5153425603 3.675681637
-3.643797284 4.853161172 2.818608648
1.542933311 0.1282096306 0.4324616257
3.43963648 -1.17213372 1.067360514
0.4183147496 -2.887188267 3.20691295
1.242602797 -2.808228015 4.621976573
2.632150552 -3.28920655 1.437206369
-0.9815475633 -3.018681213 2.111079579
-1.158755693 5.160563247 0.7062402665
-0.04272006444 -2.987300388 2.609887191
-1.836963541 -3.203907208 0.7323913184
-0.03867365954 3.248882403 -0.4350712618
-3.323366209 1.493312874 3.441449371
2.691696934 5.221092786 2.311589821
-2.597980218 -2.787157164 3.518567761
-3.927033836 1.699728847 3.138543898
-1.412449307 5.13799389 0.4294900386
1.187030074 3.565865877 3.965162365
-3.448763561 4.819353279 -0.6244394414
-1.02653102 -2.898561973 2.807128806
-2.68364192 1.868798795 -0.7074890621
0.5671325419 4.746806981 0.1934080836
-2.143839138 -1.856565536 4.321964147
-3.244634683 -2.643442539 3.799637501
-1.121989645 -0.3993779054 3.672285063
-2.263701151 -0.9975892273 4.130633799
-4.127463522 5.43250932 2.204014102
2.525384135 2.670414251 4.384335514
-1.859679331 5.132552997 1.092167533
2.730428137 -1.750188085 5.022023183
-4.416865514 0.9942731311 0.2046126227
-0.1946158697 -3.035880669 2.185595438
-1.233344814 -3.055461544 1.856918985
2.834170698 -2.422998201 4.426424983
3.050984407 4.046377971 0.02907499545
-3.007597492 -2.712954121 4.021033419
1.924874957 4.898813473 1.055816665
-0.07888323994 -2.899131928 3.735614714
2.308497536 -1.128592239 1.099083521
-4.196036978 3.139610813 2.99869781
-0.9292684541 5.198079062 0.9613289283
0.01647188188 2.204093606 -0.2016563966
-0.9023156301 3.415335495 3.569427387
-4.664007672 4.035145533 1.777612472
-0.943694394 5.29129112 1.547853325
-1.197853172 3.177386589 3.223049249
-2.009547344 4.806440985 -0.2279592879
2.756043299 -3.057794109 2.548500157
2.589331152 -0.5772290745 4.969619248
-2.640403101 -3.018073379 0.196263037
-1.173833415 -0.9583739745 3.732112248
-4.426357028 -0.5058312342 -0.09008399551
0.2986326872 2.15017741 -0.09084328838
2.671833764 -2.660185009 1.182038885
1.505854394 5.156285066 2.258337548
0.6798372201 -1.230051082 4.743044679
2.787204536 2.176866592 4.537783635
-0.8215209032 4.178029482 3.223620085
0.4844629139 -1.450880606 0.5051682019
2.989323581 0.6325597881 4.013975911
1.686636708 3.266386976 4.119575004
-4.058011805 3.535700755 -1.12744804
2.752300527 -1.173631275 1.003962559
1.32834035 0.7132088671 4.488983588
-1.697122129 4.329174056 3.275147549
-2.465340958 -1.485134355 -0.05408806648
-0.8336492099 4.522459026 3.413176763
1.501220796 -3.131409044 2.322432961
-4.930861513 -0.7819845477 2.68350606
-4.500057443 4.480391162 1.099306068
0.4807590037 1.315880444 4.238591683
3.601818933 4.115034815 0.1840553734
-3.119288048 0.3016732655 0.6436153077
1.586887063 -0.9756186357 0.6448129055
-0.792552159 4.929538312 3.011060417
3.413205522 1.430670296 1.476811151
-2.834368283 -2.831876946 3.249182871
-0.07024904436 -1.907406472 4.704248473
1.958026294 -0.7108210481 2.625461635
3.262391124 1.497144842 2.610585401
-4.251104757 -2.760362872 3.078442782
-3.072730719 5.274601684 1.130892841
-1.231667969 4.979393487 3.27060223
2.992655258 -2.063414768 3.573074927
2.205294128 -0.1428638968 1.928200131
1.088894979 2.881073889 4.094945733
-3.531472722 -0.3692903998 3.774925161
3.113648882 -0.79190127 4.274391794
-3.596045489 -1.621509055 3.984991358
-0.8493128856 4.086940476 3.332056908
-3.340199422 -0.7604580665 3.867945108
-4.736237957 0.8773238292 1.78615386
-3.71477421 -1.354094616 -0.3342416397
3.112924406 -0.1945378462 0.8018499088
3.088577256 4.914500825 1.283408756
-4.557210015 1.746132023 3.190549341
-2.705159835 5.116158947 0.4057924491
-4.801408634 2.242710364 2.713253307
1.108537832 4.982048998 0.7742478187
-4.526615887 1.016821408 3.309958426
-4.594430458 3.652577656 2.860322652
-1.716670521 -2.374712349 0.2661452837
2.887051926 -2.802152638 4.097298422
-1.673831967 5.445637139 2.193539209
-1.113850119 3.17587945 3.011318356
-0.6725070154 5.150375486 0.7152869328
1.501168894 3.768484243 3.993653697
3.094423507 4.762267421 4.000980081
0.3202738765 1.440727127 4.188122334
0.1128560913 4.103968715 1.019828919
-4.430743506 -1.059100915 0.03986239209
-0.1679242009 -1.21636389 0.3590508688
-4.72968307 -0.8274705431 3.634069556
-4.161622457 0.9190998573 3.394189705
-3.378409942 5.21956919 1.28123773
2.775739583 -2.765749661 4.59284733
-3.03395385 1.464913987 -0.07198835512
-2.160035868 -3.002908141 2.399577935
-3.025975239 -0.6434955286 0.0186101484
-0.6988221414 1.843565861 -0.3200921661
-4.945951169 -2.444900112 2.454040457
2.733856529 4.914701931 4.030482082
3.236840537 1.921133442 2.278083836
-1.942015147 5.307881475 3.060329261
-1.137149561 5.057099893 -0.008066911849
-4.788633145 -2.773734165 2.863111916
0.7779066983 3.097475105 3.977835839
3.156436056 4.323014625 3.572959813
0.7794725724 1.155303659 0.7789184074
1.446979011 4.944450642 3.778103214
-2.823703696 1.683207632 3.530064631
-2.606239838 -0.2829489682 -0.1682311355
-1.826648163 3.917010838 3.323417429
3.092659312 -1.742631106 2.497716921
2.471247993 1.796720801 4.54096498
-3.432300123 5.037069265 2.819177236
-0.191409494 1.559231281 4.065688458
0.6099059902 -0.3713144622 4.563764028
2.138572237 -0.7849953333 4.935738028
1.361585747 -1.442143924 4.885715503
2.876871279 4.198970027 4.062880077
-2.184842316 -0.892196943 4.117124024
2.073168797 -3.02048562 3.691171384
-3.29527468 3.330071714 -0.9349513291
2.914971945 -0.04257240662 4.113982215
-0.6996997245 -1.28690573 0.3746330412
3.350075183 3.793687542 0.4149996937
0.06313312366 2.049865902 -0.2143397757
1.31002001 4.574534399 0.08027574538
2.426551137 -2.907915819 4.43352363
-0.8134201758 1.068339018 0.5058798634
-2.1059567 0.2910560707 3.932870053
-3.833798412 5.074516125 -0.8271991255
-4.03267632 -2.566403086 1.533493262
-0.8841801305 1.309013536 0.3222895865
-4.406744601 3.10029097 0.316060697
-4.36943812 2.211820169 0.1851473579
1.27484716 2.096418667 0.01951449573
0.1504444729 -2.233950971 0.5934664323
-3.465635524 5.226272588 0.4278683647
-0.1745321189 5.334492553 2.009101428
-1.337914197 2.750374943 -0.5865929915
2.238014553 0.304893581 0.5320479377
-0.9910640285 2.582976842 3.166443571
-4.420113706 -1.042795905 -0.07252846357
-1.030670476 -2.739416413 4.433672539
-0.7586900948 -0.7118223897 0.1300034547
1.366136275 -1.641499802 0.7189474591
2.739898212 4.808055914 4.038173073
-4.151591895 5.286578728 0.3041944136
-3.109440215 -2.936836687 2.608929784
0.8840639507 -2.777705854 4.94139332
3.406572886 0.5797575656 0.8080032303
-0.9222628653 -2.967028947 2.31414215
2.801272287 1.769378483 0.3763167328
2.446129025 0.08690606708 0.6089625483
-4.7328927 -0.9344411008 3.613246141
3.176988328 0.07305217802 1.564366432
-0.9110816347 5.265170996 2.895522218
3.011699992 -0.1097535601 0.7529842953
-4.823895862 1.776531178 2.858370754
0.4082242653 2.291677645 0.287362886
2.261510312 -0.4303686826 1.578762031
2.146691299 -0.9453030593 1.655220979
0.3176398631 0.8376917454 0.06114094508
-1.368752629 3.129405818 3.551550396
1.735082639 4.846213567 0.5960219533
-1.141200785 -1.073875878 4.033571844
2.226556205 -0.3919173005 0.6596708462
-3.532181547 -0.584424295 3.807676158
-3.768486029 4.623123992 -0.02632429399
-2.356394328 4.484221512 -1.105825954
1.418828754 -3.298116682 1.282412942
-4.481092449 4.979942803 1.006836359
3.409377999 1.779527008 1.497619008
-4.108210492 2.787871431 -1.099772154
-2.082829427 -3.152362113 1.516781718
-4.366473209 0.2413879923 3.495585483
3.064543152 5.235981625 4.01355333
-3.949269799 3.803638254 -1.26806407
-4.086662309 5.15505013 -0.3713273478
-4.470683017 3.208744723 0.7137242563
2.710321012 -2.552596057 1.181155611
1.986852437 -3.153643491 2.010560935
-4.059697509 -2.795440975 0.2132163846
3.371742236 1.253809031 0.9051133495
2.989374522 -1.932706054 3.532893834
2.306330886 -0.6742438936 0.7049318011
-2.888112709 -2.415457917 0.03435517041
3.003838343 -2.424003519 1.459655716
0.907835027 5.164481682 3.629585947
3.167276597 -1.678958921 2.276096169
-2.331734948 5.608658175 2.260670149
-3.173207398 1.689515859 -0.1828815755
-3.498180184 4.739029911 0.1509486079
3.278133155 1.320175882 2.090330801
-4.70113458 -1.172059418 1.66736114
-3.753728791 5.107830181 -0.6254346978
-1.701184221 2.460957659 3.607000032
-5.009616016 -1.051772145 2.910690942
-4.011574522 2.63425023 -1.099955705
0.7264355016 1.408089568 0.1983627269
1.1364409 0.5149387966 0.6530103613
-1.263442813 -0.2102884115 3.598416278
-4.106927825 2.870065922 -1.022330525
-3.970531824 5.394464155 1.032233536
-3.491390578 5.084753868 -0.5603351033
0.6035163213 5.358293496 3.042654107
1.213437807 5.070590887 2.022610969
1.757796358 3.748390111 -0.1747735529
-4.848709365 2.337047577 2.960846972
-3.059419476 2.36879275 3.355317252
1.838973646 4.430521449 -0.1197077115
0.5889599894 1.11950267 0.8575797555
2.25778466 5.137495126 3.9056765
-1.367303953 -1.176211706 3.762247391
-4.425926356 -2.747564058 0.444071826
-3.039771822 5.095449539 0.3420896087
-4.383342504 -2.75955498 0.3672413869
0.7863525869 1.211310317 4.315574206
0.7798097823 2.052614813 0.8564768889
0.8787561651 -2.899465383 4.02144735
-3.170612481 4.690962148 -1.289074202
-2.325076873 5.42036769 2.57679669
-0.2038253245 5.158921178 1.002147341
-4.736659797 -2.103103692 1.61379536
2.992277288 -2.186295045 1.131411948
-3.425604803 -1.532986075 -0.2219282962
-2.528496047 -0.3848021803 3.969326451
2.944451912 -0.6804398941 4.372653082
1.17147143 0.9458799434 4.436391097
-3.178796199 4.17142108 3.016736579
-2.727454274 5.49351726 2.856701595
2.604259081 0.4090036208 4.804044455
2.746014807 -1.184459318 4.181575561
-0.3694345677 -0.04329355434 4.310589507
-0.2733789601 4.633253571 -0.7075449295
-4.661468008 -1.945350235 1.398121797
-2.693036798 2.354593896 3.456968982
-1.222964746 -2.304742053 0.8902982089
-2.93858255 -3.244558522 0.6388888836
-4.815269887 -1.293565654 1.988527113
-1.549108292 -2.134932225 4.254523602
-3.665016897 4.047258157 -1.031364769
-4.704296136 -2.569796953 1.314479054
-2.690604557 0.5131657784 3.77367563
-1.240147438 -2.192683947 0.9714370507
1.50146924 2.457615881 4.102815666
2.864824958 -2.589346486 2.180271042
-4.753132994 -2.749889018 3.065543591
-0.5696787854 1.001079559 0.5614970839
-1.290541345 -3.156245833 1.154297997
-4.495721427 4.293794604 1.040772485
-0.3194526613 0.6296044458 4.21118599
0.309400547 -2.88610908 3.236516013
3.207497158 0.08323030732 0.7625244715
-0.6757058006 3.215880273 3.674658317
-3.315483885 5.330054666 1.593720562
0.3218281479 -3.258077497 0.8030580378
0.3658433579 0.6420499163 4.335741968
-1.830683011 -0.5078355336 -0.09458913122
-4.554999687 -2.66886053 3.628511208
-2.783046183 -0.8443037912 0.03010004232
-4.59125656 4.951574525 -0.255511633
3.248398792 -1.423356485 2.368562371
-5.04839206 -0.7409448891 3.478660235
2.217794578 -1.96928843 0.9472947479
-4.647373447 5.516564212 1.954898853
0.4940845974 2.512383307 -0.1977739514
-1.032138137 -2.819814812 1.459027472
-1.031379364 1.436152759 -0.2918573852
-4.759385135 3.85320489 2.763835086
-2.983920418 4.811232177 -0.4537177274
-2.201537317 -3.170427876 1.181073664
0.4083867056 2.388631777 -0.1952704518
-4.933145479 -0.809973171 3.096792718
-4.363992843 5.278487533 0.5559716135
2.794467745 -1.967337185 4.644954526
0.5372881171 -3.005008997 2.617513444
1.446456962 -3.213322313 1.695802904
-4.540533523 0.5384294748 3.402736832
-1.650987039 -2.840386491 0.35491025
-0.1528085833 -2.862369124 4.015103961
-4.03081923 -2.949274155 2.029354515
-4.965638016 -0.1643873137 3.083138749
2.924213702 0.1345635539 1.903692756
-0.8172513884 -0.516224868 0.100876484
3.313015758 -0.1638573638 0.8323151323
0.5771692073 2.404483046 0.4264285577
1.001875318 1.808657663 4.24735337
-3.124492024 4.674859743 -1.268611008
1.01816727 2.09276019 4.194224573
-4.919046855 0.7701995923 2.948684766
1.912983414 4.477217658 -0.02090818513
-1.886450217 5.573785769 2.758937094
1.638319955 -3.058806944 2.754298008
2.604876585 -1.660337582 5.155760955
1.559496694 2.584640811 4.215903365
3.039506708 4.026633119 3.285499771
3.635749933 4.854824809 0.6907572633
-2.137814107 1.961922526 3.615167415
-0.8943225144 5.105319423 0.365275115
-3.648477103 -3.043728174 1.595155982
3.274836034 -2.101830988 1.870764184
2.616591336 2.373498353 4.466272262
-2.405280054 5.416441129 0.05365528596
-4.615495685 -0.787394269 0.9903253138
-3.135225583 2.264969487 -0.851854783
-4.763942584 0.5042539913 1.97142319
-0.2644225559 5.119125611 0.7814674012
1.943954388 4.791609218 3.893861582
-2.631518569 2.752126172 -0.8504985812
-0.2498244865 1.960375039 -0.08648819188
1.195059079 5.201108862 2.40816784
-1.353022363 -3.202045689 1.363153132
-2.915526675 -3.109841407 1.540902964
0.0904121233 2.277554132 0.5640740691
0.2182635094 -0.2683893182 4.479409915
-4.335822987 5.218845409 0.3647800744
3.085732285 4.173239719 3.748316112
-0.04435425264 -3.266877319 0.8820314676
-2.542660433 2.673747683 -0.8272692761
2.649696615 -2.79673857 5.277102011
3.510616382 3.891418879 1.775583932
1.395944909 -2.826220447 0.9557463241
2.867017824 -1.734238247 3.384102381
0.6273716786 1.040851615 0.1655712228
3.400084001 4.419352215 1.754161798
-0.02353596598 -3.178167495 1.28547921
1.426605274 5.179546649 2.576721325
-4.043540023 2.014108164 -0.9894849448
-3.399276503 5.228381634 0.9897880827
-1.253457826 2.587973527 3.323913822
-1.093419324 -1.121694462 4.3903963
0.5811496975 1.559916432 0.8938121943
2.977483425 3.268751287 3.719465339
-0.5511027942 3.724059786 3.61344222
3.447986915 3.530618704 1.49785316
-0.9605569612 -2.2867209 4.616649954
3.211058989 2.561822291 2.153965484
-1.04355241 2.471907756 3.36951439
-2.894558239 0.7421139965 -0.447862677
-0.4296930167 5.367349088 2.048998767
-0.4053385472 -2.763426271 4.280240431
-1.123067294 2.15731976 3.207037083
-0.8238260572 3.228712342 -0.5737526266
-1.34488111 -2.449019892 1.316174496
-1.545401688 -0.9970934206 0.05223911772
3.015236728 -1.14328255 1.124736494
2.950753404 4.827571564 0.9794323382
-3.347111714 -1.220982803 -0.03664467882
1.695385962 4.517188294 3.722495449
-0.6610894283 3.658525223 3.59965018
-0.1454991082 -1.414164578 4.609666166
2.384992919 -1.110302231 1.204136022
-4.305945641 4.12997176 0.06932851873
-3.894700037 4.60795003 0.07063203991
1.30576132 -0.991725379 4.656015307
-0.8868334437 -1.773165542 1.100157052
-1.375284364 -3.053416271 0.476597332
-1.006961274 -2.736984791 1.426036102
-1.43408213 -2.638560758 0.3625201124
2.796171615 -2.909808206 4.219333936
2.786955005 -2.393398711 2.87549409
2.187417619 5.213232706 2.198095055
1.595708432 4.583902187 3.726866907
0.1997755489 2.1998769 -0.2131323735
-3.207102025 3.85414447 3.054150401
-3.276462627 1.386149545 -0.6192843093
-4.540568662 3.91512567 1.186916561
2.334063117 -1.777251578 0.9357609251
0.2927008132 -0.8489005714 4.589903763
3.169680302 -1.149450646 2.108461253
-3.160507829 -1.077970749 3.97189509
-3.329175919 -2.711449019 1.182077382
-0.8524666345 4.365118596 2.837083085
-2.869915464 1.511053448 -0.6220678971
2.806575489 -0.1113337409 4.018220817
-0.1741794872 -2.891501044 3.703909268
-0.8997147334 2.21836894 -0.4249993233
0.4729045867 -2.611405712 4.954868054
-1.651929219 -3.044390809 2.401850167
2.638720781 1.286719598 4.650179413
1.493830892 1.218800651 4.440800439
-3.799222785 -2.6827249 0.8784249135
1.605609933 -0.6639522178 0.5832056204
2.195987984 -0.6280077987 1.692728575
-1.320576155 -2.554861276 4.237561922
3.145890139 3.852040155 0.07764182352
-0.70330105 0.8653063739 4.104183218
-3.303090495 5.211418514 1.193309061
-4.486078832 1.894217047 0.7322449067
-4.828846626 0.5492511128 3.349884573
-1.191958776 -1.350861865 3.907445175
2.847070582 -2.179596284 2.94206441
-2.399393992 -1.401045962 4.186887692
-3.801734937 -2.052950008 4.020514344
-1.305395486 -1.953335408 0.2472398702
-3.936929651 -1.784772281 3.777856572
1.151293955 4.467558896 3.780104657
-4.476367502 2.617121072 0.7216081622
-1.375847903 0.6618067969 -0.2255540933
-1.548216103 -3.058634005 2.328553358
3.201391174 -0.01066325501 0.7712917242
-1.478597378 2.087474222 -0.4989978574
0.63725349 4.505455933 -0.2582751015
-3.686721971 0.4258820802 3.583349366
1.003674991 4.592171725 0.0211323384
2.301673196 5.069463812 1.429385396
1.649673398 -0.05525163311 0.4930436664
1.090942721 5.148724419 2.202458698
-0.6342939049 2.259879579 3.879411851
-4.910331721 1.1047568 3.221618235
-2.743211189 -3.282440415 0.4123643828
0.001065016608 -2.214256691 4.803308205
-1.098896255 -1.932957183 0.5364696838
-3.184322736 1.545705041 0.235289679
-1.070257257 -2.151161725 0.5177029958
0.603306566 2.164985564 0.8105444311
-0.3778729038 4.887996786 -0.6602312521
-2.300397332 -3.059860752 2.054929303
-4.40507959 1.216528143 0.2601971873
-5.033254227 -1.619815016 3.12252517
-4.5828817 2.079424169 1.206578181
3.282281996 -1.393166442 1.152178573
-1.29896866 -1.014164473 3.743080515
-0.5842219967 -2.682710831 0.6572766526
-3.786240263 3.067070726 -1.129578321
3.101183011 -0.5098209165 3.538072101
-0.998906318 1.797229547 0.5999469969
2.489159755 -1.015618404 1.704153848
-0.9800235284 4.396255749 -0.797328267
-1.293291682 4.930205643 -0.5874117729
-0.5030001189 4.996489824 3.384516419
-2.903630368 -2.759976113 1.046019715
1.754079281 4.062327416 3.966187437
-2.66732395 5.345758237 2.223565714
-2.111150466 1.657799535 -0.5415013458
2.451653638 0.2279267335 2.515471771
-3.109271158 2.964489215 -0.974131325
1.969699789 3.268188133 4.17341263
-4.975367842 -2.805427922 2.620302262
-3.776318887 -2.534007002 1.842384736
2.657243452 4.237718455 -0.08797478545
-3.549337471 4.199392103 2.936576514
-0.7083567359 2.237596902 -0.3968381676
-4.813961849 0.3158457358 2.103541775
-3.256676212 5.08079021 0.7313382901
-0.7793412394 -1.003339795 0.2162022749
-3.041367704 1.291686254 3.562607967
-0.8743255472 1.321206927 0.1168556814
-0.2026570428 5.073487601 0.503265263
-4.404312854 1.503359411 3.234433321
3.109613592 4.27952541 3.939261804
-0.3605859216 5.149223785 2.012285578
2.786048486 4.626984443 0.3589408501
2.72635747 2.056203953 0.3127500027
-3.232840564 2.278524519 -0.8966172341
-0.03201074209 3.688484603 -0.4784712827
-4.1715408 3.420831504 2.950643339
1.473808816 2.288682968 0.01389380061
-0.380468173 1.976267397 0.1846687768
-3.078750309 -3.026165694 2.002789729
-3.543041173 3.479743055 -0.8297344938
-2.430420875 -2.773570029 3.740322922
-1.426633419 1.153172428 3.868323807
-3.457200538 4.501271492 -0.3460397522
1.780691084 2.468811826 0.05563475426
-2.927294745 5.014067004 2.906578833
-4.020209334 -2.383653045 4.041768515
1.944576191 4.705542999 0.4870650736
1.504117445 -2.141271899 5.059066011
-4.444623846 -0.9057166055 0.0994624145
3.343195225 3.977423848 2.559718223
-4.122721857 3.511384248 -0.5144736407
2.151532403 -0.8125994275 1.72022517
2.83822562 -1.737436249 4.326591547
-0.9458136734 -1.895490364 4.549626463
2.2002892 -0.997738911 1.444967244
-4.443289182 0.3236663381 0.2986640438
0.2371570875 -3.079678873 2.187252444
-4.592955836 -2.36169356 1.897673374
-2.862752452 -0.7750143251 3.971941086
2.090151909 2.667727154 0.07884415839
-4.050217913 -0.156427234 3.625930309
-0.9998296533 1.748497882 3.297769943
1.684007716 -3.310820678 1.076548379
0.1185517616 5.136018525 0.8639812197
-0.04804492642 5.187446897 1.228702648
-3.058985118 4.584693516 -1.252622336
-3.801892805 -2.668314846 0.9888509349
3.362760324 5.053017335 1.650049511
-3.389207871 -3.061048724 0.2982688663
-1.044066452 0.8484910058 3.46197311
-2.486276799 5.010496462 0.2402262405
2.854222565 -0.2532444514 3.611771058
-4.143810696 2.316398185 -0.9174849702
-2.818482922 3.095864953 -0.9411754064
-0.9676736373 5.070759342 0.2502863834
2.058113195 -0.8335880433 2.116643868
2.571187895 4.824536984 0.6045107914
-3.951488121 -2.946976815 2.141008274
2.279393326 1.503036535 4.548056487
1.866819722 -2.953691506 4.110898694
-3.570187455 -2.868401016 1.2723679
-1.199825236 -1.512199953 4.288738143
1.191914359 -2.739784655 0.8906198415
-3.622528429 3.058592552 -0.4834758889
-0.7613886198 -2.139801556 0.7480693357
2.667081416 -1.490516403 0.9436108535
-0.9127521024 3.604406028 3.412430532
1.748764099 -0.0005249737408 0.4867505007
-3.776065959 1.935832945 3.299145308
-3.209345489 -3.08238899 1.497961342
3.08022201 2.52681918 3.07400291
2.271630151 0.1014477341 1.997942025
1.869090428 2.275888412 0.1046276001
2.898167662 3.840349478 4.236246978
-1.131557926 1.86960996 3.236976502
-3.755046658 -1.363459434 3.91660123
-5.034014948 -2.373937757 2.961367331
2.849752367 5.298547995 3.029489778
0.7508019544 5.261670348 2.516485775
-3.871282682 2.944018495 2.916379571
-4.311995304 5.454723315 2.575430414
-0.4132277169 3.792991727 -0.5839092686
-4.744144486 0.9893453727 1.876478642
1.337102375 -2.273094089 4.859601773
1.112318313 1.714955565 0.5352198645
-3.630811871 -2.607066328 1.604834692
2.964685431 0.7665525954 4.080712664
-0.136593325 1.654114441 0.7641007629
1.396619747 5.470620696 3.15471976
-3.126815055 -2.879932118 0.2418898977
1.711197121 -2.971681587 3.887893866
-5.007262561 -2.760699498 2.808167637
3.298192821 4.014523558 2.760126394
1.074608563 -3.119630265 0.9270195987
0.6850617524 4.917188812 0.5991735233
-0.3757118421 -2.19061379 4.71310245
2.59823907 -2.359306302 1.099839175
-0.9706729564 5.415854507 2.265221411
2.301869648 -1.036622149 1.587970178
1.325302603 5.250565684 2.650540109
3.237543266 2.013617075 1.123710494
0.5881060914 2.594671715 -0.1938555338
-1.177273585 4.470544928 3.107433295
-1.125878384 -1.303649742 0.748884858
-3.347273579 -2.632814714 4.22000477
2.192759195 -0.1776395669 4.844090904
-0.8060418074 -2.509680118 0.9086577741
-4.744015818 -1.353016831 1.792927081
-4.769196886 1.001195339 1.979746474
1.880605629 5.126530532 2.368169652
-4.844139619 2.289431282 2.649111549
-1.071182694 4.120241429 2.866214807
2.755565511 1.199942063 4.250698011
0.09442899467 2.161887689 0.258552285
-5.048339787 -1.496704028 3.321268753
0.8520397833 -1.256745338 4.768915715
-0.3631836197 -3.04870476 2.025659561
2.77905306 0.8632648958 4.26405158
1.52500615 3.969044909 3.940095118
-4.29558845 -2.693046165 0.7689850215
-3.048630769 1.101223893 0.1274395269
-4.011116503 5.324594905 0.6107194461
1.039271008 3.672983244 -0.2933537997
-3.519209965 3.092692199 -0.6027632356
-4.551620398 2.601293353 1.217100676
3.261707002 1.202867156 2.702227034
-2.752178597 5.335667793 2.009079786
