# .PCD v0.7 - Point Cloud Data file format
VERSION 0.7
FIELDS x y z
SIZE 4 4 4
TYPE F F F
COUNT 1 1 1
WIDTH 1275
HEIGHT 1
VIEWPOINT 0 0 0 1 0 0 0
POINTS 1275
DATA ascii
-3.954669561 -3.079012665 3.533641979
2.333164715 -3.906478303 -0.01169882888
0.3058408604 2.829666968 0.8394810881
3.061351893 -3.461100743 -0.5903392123
-1.691676488 4.080020152 1.107069524
2.489203214 -0.6374753641 -0.5165969099
-3.704807081 0.267892995 3.938918086
-0.9953533605 -2.43221339 0.6147089411
-3.388817283 -3.011587074 -0.02736635165
-3.348429887 -3.997961297 3.712697884
-2.694809447 -4.041690697 2.561761225
3.510531738 -4.060479548 2.817950647
2.859845512 0.6718993635 3.786744495
-2.885956788 4.053563917 2.448674134
3.250299169 4.015112841 1.660366736
0.9873241668 2.145148232 4.542476058
-4.091433306 -2.16272651 2.611725552
-0.03299109898 -2.004910314 3.128936617
2.746470579 -0.1158883847 -0.4136465241
-1.693540331 3.194192576 0.8943536158
-0.5990702322 -3.94470938 1.591547612
-2.584096429 0.2816618312 4.436198431
3.581949184 -2.450915723 0.3821767963
-0.1653188333 3.541765753 5.0271488
4.207561521 -0.6040143948 2.879169874
3.898837809 -1.600110945 1.457968158
2.911446826 -3.063239924 3.128808309
-4.248792758 -1.292881364 0.9967091681
0.4556285777 3.928655445 4.048791206
3.365798382 3.959453878 1.938471267
-0.2095773676 0.637143918 0.3829092892
0.02247940729 -1.821793749 3.423069687
-2.939466431 -0.1233045464 4.530509049
0.7401347291 4.452885589 1.426498684
-1.797573694 0.3954262096 4.512817645
-1.365579172 3.911019643 4.15537586
0.3256240741 -0.3898250334 3.929709104
3.693494525 -4.370296337 1.49101714
-3.724691975 3.566673493 1.999145521
0.5063667839 3.942611459 3.929389011
2.429202688 4.022851217 0.9256728112
0.797397718 1.842674548 0.9398236613
0.5430037847 -0.3271226912 -0.1740717322
-3.671586362 -3.245448659 1.66386384
-2.770745739 -0.3324383147 4.465682307
1.039392537 -2.351080276 -0.6993744089
3.849084451 2.96566104 0.7364967229
-3.950424743 -2.028110568 3.368536022
4.119362744 1.860756541 2.198086435
-0.8719457198 -1.794552914 0.7217508283
4.1408646 3.724347155 0.9561817635
0.2153879199 1.677083415 0.7640423752
3.388676315 3.217401133 0.242605254
-3.715508499 2.024923421 2.788508421
1.600305061 0.5270166201 4.109456336
-3.447252694 -0.03670819984 4.269766183
-0.08494405432 3.824328396 4.821362587
-3.697352861 0.3447633392 3.854949708
3.620069066 -0.5666639679 -0.04106955277
2.624187426 -2.751689891 3.091053773
-3.408707307 4.867534841 1.693650956
-3.997167426 -1.055161565 2.655521023
-4.072062749 -2.219350716 2.801896158
3.629478784 -2.039138168 0.0419444961
-2.74311293 0.7882587121 4.714928687
0.6705173469 -1.190299469 -0.3898762849
-1.44420688 -0.04197732242 4.353822781
-3.197661845 3.807039686 4.974019107
-3.790418441 -2.658493892 4.080353095
2.966967724 -1.668828717 -0.191866438
-1.479195266 0.3315542315 0.234849896
-0.9472598124 -4.11895132 2.072292458
3.193722727 2.684084301 4.374115518
-2.346174871 0.5756496284 4.441966406
3.867372342 -2.286687696 2.666948321
3.515229831 2.534127302 4.311862129
-2.741297648 -3.7514438 1.372945302
-0.05037874141 3.725846435 5.054449191
2.511555895 -0.5490738229 -0.4798896232
-2.510688348 0.7608578444 0.4712900588
-0.3273831943 -4.166841544 2.894178797
1.042340037 2.598596118 0.4129229302
-2.620213959 -1.521485309 0.9689410764
3.868971344 -2.615911701 2.555299341
1.537140007 0.9176441762 4.213779957
-0.8660998349 1.587335982 4.672703379
-1.886387354 3.446292747 5.209742899
3.139438514 -4.352483418 0.8977222552
4.143597413 1.82109128 1.683489647
4.430932355 2.720510431 2.656225614
4.160372385 3.538160437 4.156937686
3.433496235 -0.622698747 0.2117633888
0.9326068081 -3.836945262 3.214574554
-0.9501975128 -4.091024114 1.911647438
1.535106902 4.055822135 2.10325307
3.834763019 0.8706315973 0.4657813084
-2.224547526 -1.935413569 4.045857968
0.2855040921 2.389505569 4.6921887
-2.815375964 -1.136343045 0.7580301603
4.295916934 2.436341128 2.522930126
-0.36322784 3.616123595 5.043579748
1.115308358 -3.764760518 -0.02215719921
2.897127858 -3.478897508 3.016488922
2.191034123 -2.756266847 -0.9358807178
-0.3975589914 -2.818849695 -0.4808679274
-0.7357215601 4.492284707 1.77059107
4.137899501 -0.1540808226 3.631595848
0.4818346614 -2.517067523 3.558010444
1.260472898 0.7267331323 -0.03157496008
2.075662445 4.042965938 1.108254896
-2.069298828 -2.323378767 3.915579168
1.23673509 -2.191479347 3.52779749
-2.30910125 -3.035015888 -0.4054983848
-3.331117059 3.93017354 4.503130632
-2.978796993 4.254630053 2.530707646
-1.751166591 -2.064539538 3.936034429
2.634440033 -1.173938201 0.4801793964
-3.346161292 4.373262167 3.30374893
-1.029063099 -1.532314569 0.07130534888
-1.988592082 4.086376645 1.157610791
-4.32268181 -2.358704603 -0.02020625061
1.266954041 1.61692191 0.1779310436
-4.420319531 -2.867509779 0.7536624434
1.34359521 3.607011701 0.6125573756
-0.3433620606 4.331897062 2.569100327
0.6444081484 -3.005362783 3.291354017
-2.779042503 -0.4188712842 4.445067269
-3.133601054 4.579129348 2.87930165
-1.434322139 1.926046909 4.797629131
2.810234864 -1.999620521 3.386479296
3.917822729 1.593323174 0.8415997409
4.154484724 -0.1934295681 2.293297854
1.018165768 2.295405568 0.3624529559
-2.756082281 -1.259298853 4.095130273
1.564387397 -4.090989056 1.204515799
-2.039428209 4.385752724 1.351819357
-2.591173078 1.870669339 0.7302013527
3.179643006 3.394820569 4.537829347
-3.565849873 3.767738969 2.963100853
-1.384333742 -3.397768846 3.608446408
2.59231854 -2.711723567 -0.9584861761
-0.02777078044 3.725781939 4.505711504
-2.342329654 -2.996990114 3.813006958
3.640034151 1.071905905 3.96983937
4.486174873 3.341950686 3.936989357
-4.116992137 -2.585529042 2.229237431
1.525546921 -2.903585355 3.333673263
-0.3092203642 -3.569537262 -0.2336353755
-2.747432165 -1.043725592 0.532461734
-3.027571734 4.047320337 5.311052088
-2.731483141 -0.2187230349 1.408532131
-2.124672473 2.615023836 0.8249167103
2.387037174 2.443496255 4.421748607
0.064156717 2.488684794 0.512404135
3.583481745 -4.312299813 2.739855933
3.566216439 -4.421895973 2.728051008
-0.660358883 4.585358693 1.549262232
-2.906957237 -2.607941166 3.956161042
-2.285495926 -3.568676588 0.220843695
-3.208241954 4.217977651 4.066358576
1.241070734 1.907061167 0.7110955345
1.986785489 1.169439697 4.217867259
-4.133343581 -0.3523892556 1.37514343
-2.784867779 -2.570251465 3.945193958
-0.04832173808 2.890837498 4.853788076
0.2638603937 2.021923485 4.467797561
-4.170907006 -2.865323169 2.05037453
3.477159632 -3.496283544 0.4427486396
-0.3157803444 -3.892106991 2.902575463
-0.6024438312 -1.718033023 0.2238558192
-2.670298289 3.945896411 4.892783964
-3.923327473 -0.8925600802 3.081032897
1.184047896 1.281751442 4.326903016
-0.7098149228 -0.7692100127 4.082391515
-1.179712558 3.823913061 4.966571772
-2.46582545 1.360644462 1.152723785
4.186256175 3.431628384 4.397829459
0.8358395718 0.6311369643 0.290066114
3.462285446 3.584802206 4.05541799
-0.8649947201 3.971918759 4.577074331
-0.4343535492 -2.40168713 -0.391141797
-2.796183721 0.851021941 0.6767698224
-3.099944208 -3.546444992 3.765514322
-4.177787973 -2.471694774 1.631456304
-0.4087905691 -0.7061331186 4.057904594
3.685297509 2.392548987 4.23711048
4.143183217 2.981521155 1.10586762
4.104623225 -1.506929201 2.809268645
2.318914544 -3.967393226 -0.1020234452
4.401131947 3.231753538 2.278988965
-3.804086363 3.054565363 1.557247696
3.733663704 1.455044531 0.6176998531
1.864773128 -4.425435159 2.086912129
0.01471189767 3.99661376 3.918935226
4.107179724 1.336823814 2.394910164
4.102279735 1.433139684 2.317024619
-0.2706368562 -4.16195481 1.914290163
-4.091997181 -3.316898972 3.184502028
-0.2318103596 4.119847248 3.568846652
-2.036994107 -3.861933299 1.449791826
-1.243053708 3.534501229 0.9274419129
4.101345654 3.67464188 3.457914215
-1.141203993 -3.204074489 -0.3523388188
-0.8301486277 3.751194575 4.673779024
-2.584345275 -3.188511452 0.6446535084
-3.561398117 -0.0510548742 4.461354523
-2.892635843 4.266888012 2.500250646
3.57472069 -3.012001751 0.761156423
-3.689993046 0.8885614721 3.559848849
-1.223370784 -3.782319552 0.6672666658
-4.292470511 -2.010573912 0.7178078554
-0.8755798528 4.125007413 1.025675343
3.117601485 -3.556139232 -0.136922151
3.797544511 -2.970287683 2.313482536
4.294208166 -0.2240595362 3.361960721
-2.356020348 1.651996244 4.851058382
-0.5391929025 1.645272025 0.3984225031
1.627319473 -2.122414547 3.501778856
0.9798774253 -4.369130142 2.219836687
4.366733013 3.660714372 3.29386455
0.2126384454 -0.4705349993 -0.1714873861
-3.11004088 -3.768547615 1.617589187
1.231168076 3.562858602 0.6102636697
-1.165906308 3.815229754 5.022280368
-3.443412771 0.2957782633 0.5807411048
3.716704372 1.289743011 0.6607823577
0.8301463018 -4.420079808 3.120391496
0.4082896775 2.999712122 1.378977536
2.705127865 -2.336382651 3.145251944
2.481497272 -2.726388246 3.058006906
1.00966052 -3.920582951 0.778348682
-2.585531358 4.090984435 4.865103652
1.031904276 -3.937144912 3.150055907
-2.867025871 4.067043154 5.14630353
2.604684973 3.521387851 4.518545393
2.643854143 1.941170122 4.277221586
-4.074443236 -2.748189521 -0.131603159
-1.379507811 -4.138069535 2.468189732
3.969635324 -1.404668087 1.80065013
2.830505277 -0.2742245116 -0.470314493
-4.066967708 -3.298132782 3.293974298
-1.299192362 -2.692474238 3.777279213
-3.653453831 -2.948291504 0.2187507391
-3.598653361 2.922748378 3.188978861
-3.753089941 1.350420262 2.851776204
4.15097014 1.346889473 2.711698477
1.334299953 4.065921609 2.531881653
-1.083649184 -2.69896704 -0.2353808404
2.11479835 -4.336531094 1.579549427
2.226328672 2.511004429 0.2488733503
3.112694289 -1.712687845 -0.8280544464
-3.736506011 -1.015315406 3.902228721
-3.663115388 0.9269920919 3.864959508
-3.457660001 3.341547478 3.974379099
2.856591693 0.1364420726 3.867101241
3.91333042 1.192912899 0.643653221
0.5948333874 -4.360096442 2.391365696
-0.4006537124 -1.111404826 -0.2231012165
3.025105602 -2.919041915 3.120837894
-3.697018071 0.9920707835 3.488335009
-4.065437219 -1.86419637 2.678588473
4.40481962 2.178294089 3.888580524
3.079046193 -4.111563041 0.4825174906
-2.651638821 4.544634136 1.729672364
-1.858038277 4.250537051 3.268317647
-3.935407559 -2.741425182 3.601311542
4.473368729 3.435849834 4.340688751
-0.6345637089 -4.332404532 2.963126326
-0.1360500617 4.475407029 1.866673409
-1.168101779 2.585747601 4.931005563
4.54053185 2.734135869 3.392177929
-2.637727428 -0.4044600437 4.269723577
-4.188520631 -3.054058062 2.207935491
3.673012234 -3.156787568 1.759427114
-2.511113245 3.960707018 5.418753577
-1.52105596 2.956751367 5.045295408
-0.2453214898 3.954056325 4.230389551
-1.121496635 -3.197209558 0.277988409
3.154175628 -2.966183684 -0.1006468471
4.316286709 2.012290586 3.233559745
4.209833714 -0.3261271899 2.950232603
3.795148796 0.3760431529 0.3615819684
-1.608407104 2.017825836 0.6089982649
3.559212673 1.664938655 0.2603773093
1.68850227 4.10355299 1.958463232
-1.184536473 0.5258006914 4.459415338
0.4968013295 4.037225868 3.547453836
-0.9484777998 -3.913602975 1.717273055
3.537730979 1.965771723 4.157975609
-2.630449289 4.207103682 4.485191775
3.313980831 -1.340419655 3.4666862
2.22189647 4.017488369 0.8700142644
1.409613333 -0.0195966749 0.1553669148
-1.226388078 4.297827479 4.018463044
0.689188301 -3.502566975 3.308259487
2.293296761 4.063810523 1.378519496
3.718288155 1.562386055 4.051917125
-3.280224976 2.877669584 1.256509073
-2.860559856 -1.081444305 1.053199245
1.794374892 2.242917646 0.2284224185
-0.3583596766 3.832391235 5.039835185
-3.54113067 2.580839798 3.722158087
2.840690018 -2.889406285 3.147504683
3.110006735 2.504445442 4.233867406
-2.441526588 3.977220576 5.337166175
-2.9781968 4.697897061 2.250888334
-2.120782163 -0.2030805421 0.1944242228
2.476653084 -3.059062654 -1.034819828
-1.193881146 -2.593450749 3.758054343
0.03886269897 0.4361881833 4.273323486
-0.1570199769 -1.66729368 3.695940132
2.866546511 -4.336007131 1.208607409
-0.9619896363 -0.354192573 4.222644426
-3.860049052 1.184314074 2.215743551
-2.304127963 4.066842451 4.315648734
-0.1942789828 0.8311219916 1.122706953
2.671650528 2.206536589 4.352076196
-0.3347678729 0.5169587764 0.9409657623
4.162217478 0.9396840464 2.828258338
-3.876369237 0.9152627423 2.139139595
3.796601288 0.5698066231 3.817828891
1.166441877 4.128916993 2.772182378
-0.4538420846 1.854686651 4.667613528
-0.01037271714 -3.784400708 0.5131485783
3.917828887 3.958442155 0.7357988774
-1.416872308 4.25296447 2.905772676
-3.156583885 2.759736565 1.218260762
4.23271215 1.118209408 1.738993395
2.518074608 -1.751385333 0.6460208331
-3.099111148 -3.121900305 0.5266045317
4.054783336 2.254135182 1.751953815
-2.964430822 4.034146386 1.793076061
1.949244871 -2.833591362 3.303246859
-1.808244235 1.866897712 0.6355662568
1.134489288 -0.08009612094 -0.01971868364
-0.594925685 -1.753801708 0.1167844994
1.893618214 0.1039825108 -0.2717636164
4.299874098 -0.56752426 3.49146997
2.466218576 -0.9362452222 -0.5521134808
4.078301913 -0.6949546594 3.138749759
-0.1866505274 0.1357342216 0.02910194385
1.482582531 -0.5824531996 3.85945717
0.1819802114 4.065424483 3.576927385
-1.05656121 4.650015716 1.514627815
-3.572605139 3.552297822 3.007863478
2.07105986 0.8598998315 -0.1266907328
-3.195598714 4.640488819 1.490245822
-3.401139685 -1.715239446 4.234742454
-2.330331867 3.632901908 1.063160139
2.537262201 -1.157124192 -0.02156270772
4.075115134 3.92361647 1.657252165
3.863103811 1.52151821 0.7179991177
-2.960390398 4.728062777 1.799062238
-2.530528233 -3.427456757 0.2138085874
0.3852827694 2.640836483 4.377824981
2.734755675 0.9514211743 4.052169814
1.356211912 1.895988315 0.2044865032
1.999912848 -1.541908203 3.591845894
-3.04211133 3.640755669 5.38621046
4.061484023 1.447740937 0.6041261016
4.515610588 3.598184444 2.742156373
-3.328000691 0.8872640509 4.810178752
0.8706381159 -4.303163395 2.039847788
-3.572133479 -3.987195586 2.755481759
3.514561617 -4.501483491 1.568532069
-2.281950745 4.097263958 4.217473064
-0.1330874764 -2.090133963 3.170040152
0.1493458851 -1.546658737 3.478091737
0.3387272219 3.921857963 4.167806495
0.5898849114 1.10378326 4.384834236
0.7727596924 3.750233812 3.752131375
-1.833824786 -3.062131673 3.746941305
-0.5309909217 -3.735005348 0.4971172407
-2.858698351 4.10497921 1.973320006
2.472673062 2.972584015 0.3324095698
-2.36257 2.218936624 4.821148802
-2.545111778 3.568285161 5.331866042
-3.972642049 -2.909099231 0.1541353033
2.765661407 -1.080526348 1.188777001
4.528412043 -4.311661984 2.641397554
-1.716821596 4.090361886 3.943264722
4.053681753 3.295897934 0.9466746998
-1.132110757 2.728493832 4.959141462
-2.442806764 -0.4341592186 4.387771676
4.519987027 2.14985049 3.54956117
3.521274653 0.1964190969 -0.4199683555
-4.129716369 -1.840649198 1.670273569
-0.7323279375 4.358771106 2.622509277
-2.803266045 1.157686906 1.352434821
0.3607651844 3.359167856 4.543468687
0.9533795789 -0.009351998682 4.058690949
3.515334534 -0.7404449582 0.6772151584
-0.9902952126 4.366619369 2.045187526
-3.783717742 -2.206442014 4.099071546
-3.361530521 0.4875492332 4.725221526
3.066183987 -1.685905255 -0.1191100423
-1.290089009 -2.296608754 3.832030574
-0.6843147926 -1.359084536 3.974749919
-2.900762073 4.127077085 1.410607438
-1.468224979 -3.371270327 -0.1529473595
0.3487227309 -4.337933337 2.698006391
-2.421417611 -3.997857454 2.312113877
-1.640805462 4.184815621 3.0092101
2.476114015 0.3714439063 3.949665325
3.056551359 2.951024553 4.286031896
-2.517232599 -3.821446567 1.437805856
-1.938466849 -4.169828555 2.952297888
-3.64657657 2.654274307 1.029974017
2.565721395 -4.041160771 0.3450135197
-1.817040762 2.812544521 0.8487060363
0.7408869201 0.8512946081 0.2385726198
-3.646841057 3.911482257 1.952649999
3.339503954 3.798659949 0.413515038
4.569761372 3.015192498 3.526019217
3.522779555 3.787477595 3.225330393
2.068186756 3.809201478 2.780497931
2.795753571 0.3527670088 3.906335075
0.3540578388 -4.332416527 2.796001442
-3.47859023 2.913510046 3.987816774
-2.191342022 2.471538848 5.002846778
-1.524358355 3.099128208 5.098493662
-1.465090917 0.4351128695 0.2390766432
3.786262384 -3.746195805 2.377763826
-3.263115925 3.139551589 1.111691856
3.720930647 -3.224888072 2.237534664
-3.454745181 -3.311431817 3.915694841
-2.729889537 0.7719002406 1.15542103
-2.512343456 0.2673385098 4.559341835
-1.700970954 -3.73156869 0.7363549192
3.848054856 1.046973552 3.954640855
3.109346114 -0.488239079 -0.5509409532
-1.509002995 -3.747706877 0.7135683739
-0.2292976466 -4.157568895 2.921274844
3.594722481 0.3829556414 3.809087047
-3.588017967 4.560155614 2.373546727
0.5576377935 3.57619589 4.556692514
-0.8808438627 1.417755403 4.622705916
0.2555869024 -2.906832903 3.510081679
4.155251146 0.04245653235 3.670553909
3.566394227 -2.585688704 0.6867238903
-0.2559435011 -0.1115887767 4.193058936
1.024634386 -3.376318231 -0.9106614992
-3.581498279 3.298007934 1.504398258
4.148405093 4.0863772 1.267306613
-0.3287902982 -3.560867522 2.835093043
4.011462504 0.7477935157 1.641237698
3.848306229 0.175461283 3.727944064
4.049939029 -1.399130925 2.306544171
3.592441793 0.4342453541 -0.3719303537
0.271731104 0.3619802328 3.648796436
0.7987084117 -4.365520196 2.348583128
-4.002520062 -0.3959359327 2.079910083
-3.275267227 -3.848019605 1.927041028
-1.327865663 -4.175689962 2.957144865
-4.24526729 -2.850340487 1.552137788
4.069448341 -0.1129440192 3.154570989
-2.881453621 -2.513494132 -0.2394893581
-1.979970856 4.240124115 2.965068087
3.671806084 -2.442652843 0.7808710152
3.791638472 2.157519583 0.6544085096
2.389091785 3.984623168 0.585022562
2.352037538 -1.999603141 -0.7906683353
-1.068322041 -1.554578145 -0.2090344067
-1.367350074 -3.063491549 3.670364858
2.780780829 -0.410053066 3.603683538
0.09940093544 -0.6571880319 3.412173582
3.933474891 3.555594664 0.3252012424
-2.836656549 3.284854133 1.066753859
-0.2237351689 -2.300721118 3.333489187
3.097133458 3.179847673 4.332511588
-0.9283495624 2.092948688 4.770118778
2.132732368 2.644594427 4.513722194
1.886982587 4.063772658 1.329086143
-3.891487627 -2.028631226 0.02662874946
0.4242922864 4.472640403 1.584952646
-0.4535520969 0.5746466418 0.9260752197
4.045877478 0.9129718116 1.692369316
2.261824115 -2.095131431 -0.7930827506
-2.945856545 3.577252588 1.160507026
2.410030674 -1.561492412 -0.2182756945
3.011382107 -2.222045314 3.305860524
3.134036465 4.01339715 2.09414611
0.6764876488 -4.501769041 3.097553921
-2.610426638 0.5256909021 0.5400115795
3.1058662 2.653251848 4.242390724
-3.103698872 3.833989997 5.464180794
-0.3967346762 0.3323616179 0.07687909537
0.8320986246 4.279247598 0.8272434493
3.625356656 -2.403703425 0.4983230835
3.642919684 -1.978273268 3.282777827
2.767681569 -4.169179012 1.001938422
-1.387173251 1.114004637 0.4045334112
-2.788700783 4.143863088 2.534245192
-4.235610526 -1.14933933 1.004388683
3.6456772 0.07006560533 -0.08704081887
0.1712439702 1.74100077 0.4926709571
-3.265367898 -1.927937105 -0.04513406097
-0.80881 4.485240142 2.149391536
-0.6244693249 0.793258082 0.2432189033
3.291383993 4.02553575 1.351165344
3.097150142 4.122043993 1.818531461
-1.688580503 2.874388148 5.060057215
-0.9143134794 -3.691651968 0.5484174017
-1.253635294 2.795182018 4.990233566
4.677023879 2.976586755 4.163196906
-2.684823179 0.6690421298 1.202682493
4.255715162 2.507538245 2.108824532
2.992131745 0.2104929897 -0.3642426894
-1.281352751 1.11031636 0.3619253038
-3.985670851 1.600767903 1.291803543
-2.536303119 4.415546514 1.427933804
-0.472715138 1.386094254 0.9963852151
-2.991852705 4.65477751 2.458441031
-0.7491760516 -3.31547955 -0.3324939919
1.873974049 -3.956133594 0.3507682135
2.078370625 3.72823628 4.224767397
1.260789473 3.686803338 4.632586593
3.714710151 3.797789891 2.995757912
0.5353636252 -1.050671765 3.893141867
-2.565388872 -4.086875336 2.813440204
1.157067072 -1.132702996 -0.4406952677
-3.97818389 -3.207352787 1.646515986
0.5582494408 2.165379829 4.271254199
-4.129661211 -2.3107822 -0.01548792569
-4.118889907 -2.353676518 2.061983206
3.213793742 -4.057151567 0.9842107398
2.194471219 3.66014214 3.576345938
4.183287579 -1.414543217 3.319334421
-3.846135401 1.728456338 2.016212902
2.529166828 -4.627195383 2.600833982
-0.2426580478 -2.321570925 3.455994238
-1.263177053 3.482653658 5.134003365
-3.989186286 -3.961710628 3.755720932
2.482005546 4.019741746 1.962937181
-2.325266296 -2.268429135 3.966558119
-2.194216125 3.858929928 4.934713757
3.889686814 -1.889960309 2.196867016
-1.73100823 0.1789906456 4.441091836
-3.86253512 -1.713578615 3.72408423
0.04770874659 -3.729467383 0.195329092
0.8702145757 -4.524152162 2.935478125
3.844521001 -2.458307202 2.754621263
-3.498310515 3.541781734 3.518706163
4.200862133 2.584052408 1.640223367
0.04444382694 2.743874888 4.812158712
3.132491982 3.837605662 2.480829076
-3.256427451 -4.189686646 3.666072976
-2.493604335 -1.045472999 4.273765936
1.079426809 3.942624872 3.582424359
-0.5742813495 -1.271654263 3.968935333
3.865732729 1.235892147 0.8406004886
1.756602386 3.686715455 3.850482662
-0.3013934514 1.456541539 4.554363378
1.136614741 -0.1175691462 0.1442550078
-0.8763894251 4.11179386 3.216393464
-4.198703538 -2.094469948 0.007754731704
3.899090307 -1.288839566 3.3994756
2.146534506 -3.705087095 3.076241174
-0.8139570248 -0.8461791025 4.07821332
-0.9466092998 -0.156566969 4.269002556
-3.18319529 4.271699564 3.337335883
0.4098551693 0.5229637028 4.004593209
-3.817783902 -2.074550263 3.724208027
-2.397021894 3.925616741 1.160415952
-2.526618801 -3.978783776 2.269192086
1.132119703 1.328836972 1.060215459
-1.659412843 1.321533333 0.4626606876
-2.074386397 4.288242249 2.895311177
-2.044955416 3.171429327 4.985817653
-3.4003403 4.04132062 4.017886119
-0.9607615739 -2.176638998 1.119430649
-3.760619689 0.1901721802 3.509254941
-1.100016647 -3.672211032 0.4749657533
-0.4644422245 -4.1428798 1.944242696
2.477720124 -0.7458513984 -0.5192702188
-2.083417252 -1.457622551 4.100647909
3.544767751 3.59159049 4.048633426
3.436146483 -2.901665676 -0.6374318318
0.8275918417 0.7876130875 4.250419494
2.969983748 -3.755471819 -1.068169047
-3.197310416 4.579810608 2.887482033
-2.808771144 2.920029681 5.18276511
2.097960654 -1.36038248 3.617431594
-2.829226826 4.383810117 1.564493054
-3.541585352 3.033971616 3.490664497
-1.63502186 4.399446788 2.531204766
-0.2368856881 -2.132005145 3.506421192
1.158090008 2.051678385 4.511856198
3.081285631 4.263906084 0.932513999
-4.062944318 -2.099939019 2.738972938
3.382710267 -2.995856844 0.5890457222
-1.613857457 -3.47344815 -0.2494525923
1.171684173 -1.91085221 -0.6075502052
0.4231481613 -4.362126452 2.640874987
-0.2781700995 -0.3211771757 4.16266144
3.858124815 1.370989062 0.1597672032
-0.4332314954 -3.395637807 2.991898546
4.357934696 0.2784800035 3.681685676
1.114155722 4.418359044 1.392181739
3.398208581 0.4976356792 3.862274498
1.499860643 3.893753255 3.524071286
3.260574746 -2.919349447 0.5155794381
0.3589031923 4.235512419 2.677744599
1.586758591 2.193117735 4.487301413
-0.3168091691 0.7909401083 1.123914638
-1.919322692 2.251965755 4.945755138
3.830521804 0.1569312603 0.6261393072
0.6523440736 -3.640707056 -0.4595054
0.8930749405 -3.5455538 3.258083951
4.240381628 2.390574983 2.279632154
4.480180329 2.08344233 3.967996296
-2.99084282 0.7723370991 0.66814432
3.728786095 -0.8203577606 1.142762902
-3.134418909 -0.2108205104 4.550357472
0.07815887974 3.896683659 4.513654788
-1.104985341 -2.954853637 -0.2867461538
-3.148429225 4.425301808 3.556675745
-2.782528044 -0.04533798574 0.9833030562
0.840452832 0.7413457674 0.5858660377
-4.281138117 -3.162727623 1.692058961
0.9711460619 -0.1318027286 -0.1935974285
1.677519359 3.079936052 4.671810857
1.748338642 -4.561856242 2.715637764
-3.425745876 2.681955455 4.565090893
1.920518048 -1.599506844 -0.623066298
-3.438143766 -3.719771039 1.461373176
2.409149889 3.9336802 2.267200992
0.1803438161 -4.28599656 2.248446098
4.003297178 2.237679874 0.9524052956
-1.885457678 4.031762874 4.792542285
-0.601033355 -1.821394642 0.311111339
2.770572062 3.746219288 2.796077452
-3.014080989 2.04269274 1.265741209
3.165822697 0.2136041092 3.817974476
2.363302552 -3.365749488 2.982029088
-1.262090114 3.927224561 4.279925665
3.264265841 -3.50005304 0.903814513
-0.4400659132 0.6518632032 1.053080517
1.659811803 -1.834251582 3.564863015
2.886774381 1.009193194 -0.192745595
-0.07028263344 -3.60051644 3.041126917
0.2639893807 -3.004270807 3.507508066
-1.073278309 4.307935623 1.735567952
3.314895327 -3.714743995 1.190532089
3.546942492 -0.6954779898 0.5713861472
-0.9623890857 3.793064965 5.021170212
-3.230048525 -3.904962553 2.228853568
2.506365281 -3.688670687 -1.012677026
4.460276875 2.872555433 3.840949891
-3.667304378 1.983106894 3.193378192
2.476132585 2.150223958 4.333326513
-2.929323096 3.925611886 2.46930015
3.717194486 -1.741236171 0.2171249287
2.880356049 1.513290955 4.168968365
2.87164026 0.8916075749 -0.1938473538
-1.835288089 2.776916359 5.039869503
-0.1877765966 4.067833711 0.9097013346
4.294861668 2.401579614 2.720870595
-3.732680943 -2.900152766 4.011236664
-3.069718769 4.050213819 1.653054025
3.140013736 -2.772934138 -0.2579665871
-0.6023723758 0.3206211984 4.322935493
0.6838254394 3.312771851 2.333992894
3.525184526 2.175549586 0.1823731579
-3.499913202 -4.116087961 3.339395226
3.550633743 -2.728927023 0.6438883865
1.53893123 3.747540236 3.878381694
3.712112055 -4.08329779 2.429747199
2.843006353 2.673402431 0.2094132452
3.62165941 1.762953276 4.106178077
2.569286739 -3.825824255 -0.43515313
2.201505 3.793161599 2.975552702
-2.25720795 3.000206482 4.992358752
2.618957939 -4.436744006 1.702808931
-2.625208189 -1.263114496 1.060961475
-4.244834567 -1.873650579 0.8273455073
0.453940565 -1.098313563 -0.3451233692
1.267842195 2.219867872 4.512720272
-2.630075836 4.032529552 5.275343648
3.765037486 -2.922653956 2.114728979
-2.661544539 4.469743944 1.77009197
-1.643294248 -1.323929911 -0.1232261192
-0.3897986568 4.250274739 2.974513126
1.273622007 -3.888877273 0.4368398807
4.45099589 2.800582974 3.732909231
3.850780692 0.5409209011 0.5934492972
3.742615334 -2.733844783 1.954226631
-2.316007988 -3.634978641 0.5136220096
-3.783754873 -0.02129275524 3.468054634
1.924047758 0.702377918 4.087062276
-1.217527795 -2.5134195 3.784059242
3.869712613 -1.687473801 3.323600848
1.148427909 0.6925236044 0.5614430709
-1.533695412 -1.796419521 3.980582647
-1.518965674 4.460307557 2.131673405
-0.4648992468 4.024760053 4.075225311
-1.893264872 -1.576229273 4.073837645
2.298013621 -0.3016227653 3.82761275
3.563918155 0.7569301743 -0.1584537891
3.104612028 0.4211795946 3.8905793
0.9056209693 -4.325947382 3.105904578
3.35602326 -1.668493307 -0.3509071372
0.7470159101 2.531902443 0.4467812353
-3.910376716 -2.80929163 3.691275862
1.020042103 3.852520939 3.967028517
-3.907013643 -1.189391945 0.2036708268
3.459162806 -3.444478579 0.3898324458
-0.8922231976 1.121556405 0.3436608019
3.499872272 -2.341941542 3.213142625
-3.501057859 4.336638926 2.5877913
0.07374198767 -3.887696915 1.106636805
3.463573934 -1.824626316 -0.2084299185
1.957029113 1.84371557 0.1150113127
-3.427724473 4.311218504 3.473233368
0.5299280233 -0.5956576499 -0.2457412014
3.853754272 -0.3796609907 1.023887047
4.555606306 3.444827712 4.230106469
-2.170423978 -2.61073397 3.880650862
3.949888427 1.510701704 1.004280123
4.451768505 2.44586689 3.019594475
-3.768382081 3.116690521 1.813470534
3.008278973 0.260640226 3.711764158
3.288456617 -0.6091514755 -0.01487084123
3.725155034 -3.687549049 1.409521624
4.045687037 -1.978340197 2.37227441
3.183702655 -4.130556673 0.8707459642
4.037278424 2.019088291 4.106872083
2.960395994 1.817851605 -0.01691967852
4.28249671 1.605639308 3.54467692
-0.1481588443 3.826468475 5.019594866
-0.6949899216 4.302923616 2.906226615
-0.9241597106 -3.556283001 0.3712758072
-1.897624603 -1.666517258 4.071669234
-2.386223657 0.3291566336 0.8328736509
0.8737781724 -3.644323361 -0.4874886763
-3.490166533 3.748666945 3.554829239
0.2282502547 0.3156771472 3.622994927
-0.02605693043 -0.354627642 3.7457951
-1.252739675 -2.110175263 3.86872601
3.504964375 -2.873810851 -0.04469443542
4.110933636 2.1357105 2.271729825
0.6822304641 -4.335947871 2.275469598
2.41209807 -1.546904653 -0.285579599
-2.753579698 4.347358808 1.291993627
3.600758739 2.535898965 4.300104586
0.6222095276 1.581165353 4.461198672
-1.273408194 -4.069656296 2.041765182
-0.3069635672 -0.6039821066 4.075656979
-1.229576958 1.032024322 4.577925144
-3.862403699 -2.925956618 0.1514326371
4.294752179 0.5615740728 3.457202201
1.36687064 -4.348023282 1.991540381
-0.03887039179 -3.547398229 -0.5689188947
1.060858022 -3.680500774 -0.5266697551
2.976910099 -4.386500644 1.371168537
-3.817123645 1.729331656 2.10140223
1.282407841 0.3194895175 0.2484446646
0.8412323256 1.892629609 0.7628377877
-3.590892633 4.781854399 1.89789329
0.3289365465 2.295279611 4.050712615
-2.900518148 3.868269402 1.219900686
1.727933573 4.016963277 2.587390044
-2.27253597 -1.580619843 -0.09516752736
1.338678961 0.1783501343 -0.01011062119
3.123542334 3.472875545 0.3583846737
-0.1285482821 -4.193109876 2.926927941
0.1433291597 -1.253772505 -0.3309903232
-4.044552895 -2.808470764 3.281672366
3.492453877 3.872862181 2.845612898
3.846938525 0.07448026581 0.7871890301
-3.346008952 4.146615204 4.023080847
-0.6853433315 -2.510683805 -0.1512475812
0.2136665138 1.912537191 4.239601923
1.513146554 -3.974836624 0.6899199304
-1.96726596 3.843048482 4.907897949
0.2117694876 3.82277703 4.779153677
0.8083771263 1.367341821 4.387939671
-0.04980244794 4.447264465 0.9888758803
-3.255341484 -1.377357312 4.290089974
4.232374331 0.7224949692 3.318861869
0.03650348813 -2.507237274 -0.5890260267
-4.242102799 -3.255728283 2.114615754
-3.819520595 0.03785203991 3.266765531
3.865608271 -1.970159087 2.317357944
4.232196642 0.1435530567 2.735227048
0.2262052495 -3.91266421 0.9705943017
4.093759535 -0.6342383707 3.037001371
2.337949794 -4.462971194 2.440164972
-3.410892222 3.369470293 1.381222445
3.084690758 -4.379651634 2.798981741
-1.99665618 -2.443562246 3.895206338
3.699522099 -3.188658984 0.9123550205
-2.756868307 4.781804899 1.63792811
-3.018102054 4.125226327 2.538905122
2.804941199 -1.858936124 1.020921679
-3.699639158 1.438717094 3.368374643
-2.075283143 -4.285688986 3.494298241
-2.914590571 -1.067764088 0.7560824946
1.540967231 3.788913665 4.196572031
-1.336532256 -0.2464318137 4.198563035
1.633103562 -1.047593667 3.743335899
-0.07089532758 1.529961735 0.9953382478
3.678477781 3.678291881 3.593272577
-2.872909702 4.519159649 1.466373626
1.333282492 0.1960630747 -0.08479371318
-1.783202376 -2.780398973 -0.4390477514
2.185228145 -0.6373091676 -0.4695729066
-1.050294924 4.196778383 4.191265331
0.1975121956 -2.609081417 3.586674719
-3.856916914 0.5618179206 1.232510808
-2.77622573 -2.411755028 3.988070726
4.299045107 0.572238181 3.542502207
2.732385684 2.905377242 4.494569128
3.215751285 -4.003653651 0.8901208558
0.4296155145 0.8700579569 0.1838400347
-0.458413516 1.658261929 4.632098274
-3.541663407 4.518567523 2.784982526
0.9124730749 1.040960096 1.019528291
2.212920207 3.746163087 3.064027611
-2.093234683 4.084595553 4.177235841
-2.540951478 -1.466689611 0.5934556672
2.781930412 -0.9420482487 1.245040949
4.208080373 0.3953494185 3.378137949
1.658903279 -4.364007929 2.030760733
-2.745880014 -3.591948701 0.4774481788
2.380718823 -1.723869278 -0.7170716342
3.546659828 3.426740551 4.037556639
-3.058244989 4.583220417 1.796590241
-2.307428612 0.9507037755 4.525589494
1.255817612 -4.54417991 2.765755292
3.573980398 -4.605150107 2.057328863
2.505049404 -4.068325422 0.567013183
-1.047631061 -3.940731709 1.316766321
-3.801284716 4.285726439 3.107738059
-3.947454886 1.799654781 1.334030231
-4.056030143 -2.770763852 3.076195746
-4.165229985 -1.542282029 1.624881054
2.622497003 -1.635448616 1.221512654
4.233108249 -0.8070592142 3.254254772
-3.376954366 2.992491939 1.709313076
0.8219172774 4.259021739 2.399919795
-0.1489813517 1.211257819 1.202747371
-4.169821483 -3.497583514 2.755230903
-3.603546105 2.782070936 3.255063042
-2.565526724 1.898329349 1.292021693
-1.576413499 2.499762477 4.953719412
-2.398821434 -3.841825208 1.617565116
2.792978633 -4.522169173 2.158613745
0.007290512202 -1.677784474 -0.409218178
3.569638311 1.254597791 4.02202094
4.06815735 3.333476422 0.7843054225
-2.982805979 3.272516695 1.181468019
3.426356463 4.000663187 0.584804314
-3.349147785 -3.547362451 1.641234507
1.62985457 -3.834989854 0.002376967105
4.149921061 2.715608023 1.462327671
4.155927408 2.08851558 2.051994068
-1.029940353 -3.764985329 1.070330126
3.076635153 -2.815596807 -0.6807810358
-3.124291563 3.30541177 1.439517206
-1.929161891 -0.1026459314 4.426334938
2.46481391 3.976959471 2.476983766
1.346853536 -3.689941665 -0.5592124198
3.643994976 0.9711203521 3.917768978
4.321818719 0.9059193891 3.830186601
4.060976953 3.283669369 4.417339877
-3.906743212 0.4666339577 2.258919084
2.121670479 3.600706757 4.065123974
3.791747282 1.529716218 0.6948877544
4.086750214 1.317063669 0.6900636723
0.1198546308 -0.6609747895 -0.1974457262
-3.107303435 -3.692478032 3.740792119
-3.196242602 -3.313286188 1.519903627
-2.421286248 -2.10373955 -0.2015985473
2.767256367 -1.015057033 1.097144415
0.9261808232 -3.424542424 3.285577825
3.687435726 3.419445372 4.481016774
-0.6840227756 -2.611257454 -0.2796069835
2.397996732 -1.351470412 -0.5574611775
-3.169608427 4.696446631 1.849108066
-0.6070317376 1.024673388 0.9325091415
-2.176459313 1.407341721 4.801650922
-2.88594548 -0.9713143159 0.6640386282
-2.74598054 -0.1554310896 1.046399907
-4.107038054 0.05065501523 1.148515553
2.231004279 -1.173809867 3.641953597
-3.805875257 0.4196573878 3.166899787
-2.410052599 4.240181895 3.420871418
-1.707530057 -0.1288903997 0.1621755867
0.2512705676 -4.319549985 2.657424369
4.646383803 2.687748399 3.916967332
-0.5801176599 0.9206940152 0.8108302362
-2.188724797 -3.458191073 3.678395679
3.602882397 -2.851186716 0.624034101
0.3848247975 -3.99175601 1.256091747
-0.1497833477 -2.404165424 -0.5055116796
2.365671141 4.046992095 1.1492716
0.1246623463 0.6364515548 4.275141694
0.9352769623 -3.949180901 0.8809687569
2.977067164 -1.946026698 -0.843792878
0.4877471813 -3.520159926 3.340299966
3.839685006 -3.536555613 1.9621147
-2.394887979 4.140503834 4.545438723
-2.693072406 -3.839219005 3.667566141
-1.66973787 4.347597045 1.809073787
-2.110538699 3.612539006 5.100720194
-0.2422394362 1.236527022 1.21267289
4.232721355 3.370585592 1.511431418
-2.100060883 3.861097848 4.847795904
1.574436436 4.097595443 1.249274225
-1.369765235 -3.176929732 3.638654544
-4.331349464 -1.822947517 0.3437788325
-2.848643365 -3.10416765 0.5988432585
-1.093989455 -0.8358765133 -0.0812682857
2.098628139 -3.59838682 -1.057723817
4.268645832 2.561382769 2.552269058
0.5794345875 -2.848626984 -0.7352140985
4.138767825 -0.4126537683 3.215762777
0.1666241934 -0.4652843347 3.709549679
3.044349261 4.326050266 0.7484597271
-3.315990956 4.314845245 3.859474523
-0.2924510837 4.547289654 1.587566999
-3.592874686 2.836198437 1.267014124
0.3739462336 -4.464373305 3.001267087
-0.2237557055 0.579050577 0.4803917619
-0.4240971295 -3.924508655 1.370878964
1.43025783 1.148345533 0.5069039319
-4.141117479 -2.657979502 2.593684907
4.060376703 2.108858154 4.129406191
4.307164887 3.512275239 2.262682505
4.461163336 3.471119331 4.1678924
-2.055726592 -1.441002869 -0.08233060664
0.08580751658 0.8168028046 1.067971108
-2.523409501 1.660091209 0.9126769002
-0.2093676022 -2.495426064 3.196825907
-3.529150685 2.322727595 3.954420122
-0.8071547481 3.822369379 0.9279726538
-4.341911593 -1.440192198 0.2304381215
-1.135040685 -4.248772606 2.84967545
-3.518889246 3.473531801 3.380294358
1.321395475 3.531134527 4.82257197
-0.8403127414 4.30589542 1.204029748
-3.391040836 4.803958574 1.5017511
4.182946558 -0.5433999766 3.518278333
1.381584582 -3.738316744 -0.3647892101
1.553540018 0.05853917147 3.995106675
-0.005797639995 -3.51075682 3.162716613
3.659698727 3.988164445 0.9969595533
0.1965064096 -3.63480375 -0.1967230048
0.2435572526 -4.37870633 3.051385945
3.941710684 -3.353447049 2.290198026
3.845520472 3.033476508 4.36623599
-1.292072218 -2.720213205 -0.4905543602
-0.6876808929 -4.20055101 2.354634069
2.539151064 -2.844317555 3.049940217
-0.1301759738 -2.22273323 -0.4992219524
-1.52707261 -1.87422383 3.947975188
2.331229523 3.47164847 0.4653564007
4.057372998 -0.5444763977 1.898470871
1.248908777 -3.834062472 0.2374881273
-3.35120344 -3.837900938 1.960615913
-1.007217858 2.736421469 0.7348349119
3.190275933 -4.366140372 2.792713321
-0.2546610529 -2.439906472 3.097014998
1.343942694 0.94139445 4.239217071
2.757275518 3.510251279 4.285058205
2.794430893 -4.41679584 2.840658845
-2.418319544 0.1177492366 4.330467131
3.110857869 0.5601196249 3.908999308
0.3117557033 -3.864319357 0.777886671
1.741677033 -3.003635272 3.289555327
2.458462111 -4.129060511 0.9802555557
0.7331245157 4.260628494 2.356130566
-1.562857914 4.175225907 1.111301287
-0.6520970068 -2.213275125 0.2299080906
1.185317213 -1.798234457 3.634128561
-2.620047114 -0.2846623685 4.292162077
1.220553021 -4.392512083 2.60175461
-3.894028284 2.746054715 1.204365083
3.094827514 -1.538466166 3.443755585
3.954759639 -2.439035365 2.918981298
-1.090476337 1.183098938 0.3948505508
0.2881518916 2.850745609 0.5760963105
-1.576929935 -0.3221644222 4.307312165
0.3710674744 0.172292519 3.918950626
2.689396455 -3.139723959 3.025247726
-3.611545284 3.503884162 1.344201722
3.831184852 -0.2562693663 0.9363873124
-0.2132452755 2.179038006 4.726331871
-3.656675707 2.990688013 1.343376186
-3.421622644 4.553030332 3.323557044
-2.207237683 3.879405846 1.113828157
3.563626718 2.048921215 4.181727765
3.893804708 2.518149656 4.247784993
2.309583597 1.440932391 0.003493923875
-2.379939479 -0.5441422179 4.360121514
-4.098070127 -3.209534751 3.221198944
3.659285742 3.902561296 2.456800529
1.491779461 -2.732796591 -0.857318246
3.270346264 2.067828734 4.213420579
-2.718715051 3.78488621 5.399845193
-3.013193805 4.091069378 4.710296173
2.242768866 -2.935606012 3.226652175
-0.4479533223 0.529599115 0.816589832
1.326693789 1.076264484 0.8273219494
-3.999355178 -3.926595658 3.549462004
3.79299201 -3.161421272 2.273315964
0.2239248541 3.807482348 4.708184299
-2.850096595 -2.249557942 3.851744054
4.406828217 0.8599184204 3.191994949
-1.455088968 3.927334348 4.279136287
-2.794321067 0.6850811775 0.7050488922
1.590912055 2.070132275 0.2382047882
-2.494701763 0.4550073107 0.6481904503
-1.296452768 4.381531508 2.295423044
3.480105412 0.49437336 3.840738867
1.151664741 3.09459647 0.5030159871
-0.09718895236 -0.8619001563 3.749295893
0.7160123773 -1.274787289 3.823319818
-3.958672122 1.597373224 1.36330793
-4.270453306 -1.177656162 0.7035451807
0.2832462129 -4.275690234 2.234701446
-3.000579231 4.3851177 3.752355034
-0.9159704621 3.174741905 5.020121665
0.5484491913 3.593646633 4.399034838
-0.2298244804 -3.930613302 2.740725563
3.946597672 0.6001901638 1.218759035
3.392920443 3.546284386 4.324339741
-2.860228279 1.61822942 1.657765325
3.65812058 3.572257861 4.231597599
-0.3453283357 4.486878707 1.778231507
-3.307447206 -3.918152953 2.433593925
-3.799230291 3.493161623 1.265628529
0.8733621993 3.743763726 0.695903427
0.3148658369 -0.5924376196 -0.1923135951
1.36056736 -3.66393074 3.180345096
2.140282866 -4.092884242 0.8959938036
-3.548057475 -0.5371168871 4.507913495
4.125530028 0.1219544688 1.931099688
3.996464904 1.507374839 -0.09262479016
-2.106918544 2.049722975 0.6801454865
1.942675082 -1.278909769 -0.577176392
-3.86453121 0.554065598 1.35200593
-0.8398202146 -1.626580479 0.5673035423
-1.143209688 -2.842947 -0.3562424254
-0.1845406722 -4.002805024 1.593252072
-4.11313661 -2.400744758 2.355146631
-3.26534344 3.914577107 3.025448567
-3.33349089 3.757200028 4.463728573
3.434005176 3.775402003 3.249007855
-0.1668186995 3.451689885 5.004783939
2.610810482 2.298580504 0.1245688751
4.249846814 0.7138238816 2.65032068
-1.710364644 1.034877695 0.4229346185
2.573299763 3.536107704 4.428572007
-0.6586903803 -3.66379084 0.3143651688
1.632046398 3.538303238 0.5862198345
2.62089161 1.845294164 4.23585404
-1.043710242 1.897986171 4.762522113
-3.314191631 3.894397493 1.508067731
4.272195158 1.221242596 3.911777288
-2.514589633 -0.2034273487 0.2837936337
-1.401435945 1.189421048 0.4210890404
-1.547421581 -2.871805902 3.750784938
-4.045060901 -0.4147021127 1.645076899
-3.734523068 3.469335371 1.255304607
-4.291452004 -1.50098024 0.3144642796
-3.340582942 3.83420537 4.481207228
-1.978861037 1.478056419 4.797353786
-0.2933398426 -3.01554107 -0.5609653997
-3.225633469 -3.963463933 3.699471974
1.111867053 0.8129696493 0.7022901853
-0.896299045 -3.903191694 1.523656064
-0.5735491041 4.545341923 1.72024302
3.55363108 -2.256771999 -0.1935371071
0.5566880249 1.670715674 1.207182154
-0.01667688495 -3.942901397 1.422596306
-3.322484668 -3.475460998 0.7063759013
-3.815662005 -3.157771942 1.316206652
4.058385306 -1.542379165 2.492246686
2.725255016 -1.515438868 -0.7248574094
-3.867509806 -2.256442432 3.6983351
2.662470703 -1.836743895 -0.7941338921
4.156247152 0.9531076976 2.73477184
2.034811351 -3.719967319 -0.6504037969
4.270584537 3.804070568 2.718925372
3.225739976 -4.637224908 2.417660865
0.6468836344 -1.474466409 -0.4360896145
3.772739562 -2.859454292 2.618626965
3.891671277 -0.2439055439 1.358648626
-3.184095947 4.732965602 2.184724934
-0.04307990074 -2.440990446 3.292428457
2.09366095 -0.7069938914 -0.4711407726
0.3805978335 1.810689231 0.4891285082
-4.122098417 -2.385535857 2.460886794
2.08041283 3.850287231 3.102627813
-0.4840028129 4.433550133 2.210426091
-2.758941729 4.089769286 4.972905934
0.4388142163 -2.013326939 3.665747341
2.479233832 2.327069553 4.360622142
0.685627402 0.356223325 -0.04056871344
2.921318165 3.523333302 3.857236188
-4.036434535 -3.026037988 3.251359041
1.108706158 0.4709353349 4.142165376
0.7370812484 3.298405199 4.824036021
1.893863882 -0.5570734311 3.803416231
0.179524095 0.6126992411 3.95775343
-2.046225312 -2.036185303 3.989203263
-3.720151315 0.1068403223 3.811629323
1.823536715 -3.015318358 3.270247446
0.4540513305 3.903447635 4.141826716
-4.070801974 -2.61882436 2.933991196
1.316722095 -0.6553919796 -0.3389639831
2.668792324 4.014346926 1.10503469
-4.125456874 -0.2474956359 1.295434189
-0.5331867583 1.870828981 4.681653376
3.125600041 -1.163860217 3.527501901
0.1041645791 2.885975476 0.9784624604
1.754768849 -4.358584852 1.913931982
1.002205716 -4.390828469 2.720781838
0.287675271 1.682348195 4.190785604
-3.687473872 1.953603346 0.8782295119
-2.685661793 0.3830848223 1.165386856
-1.7871578 -1.47194625 4.093945289
-2.696092661 0.004399780929 1.37657278
-3.857749919 0.3275129624 2.935655772
1.315405779 1.491429128 0.4209346798
-1.070245093 4.267873036 1.077934608
2.846143352 -3.120263922 -1.05248369
3.713834106 -0.3228021061 0.3241348699
1.511631581 3.861448474 3.794895267
0.8797055426 3.853470328 4.274359885
2.773521555 1.21459195 4.115871916
0.800248917 0.7686900403 0.397896468
1.401715134 2.221212552 4.525856858
1.292778488 -2.722841616 -0.8018335653
-2.597931453 4.389578742 3.258519894
1.25749006 1.988227617 0.4294670115
1.592190927 3.810730694 3.596743977
0.5223685143 0.4960031921 4.241605214
-0.2218567028 -0.4505922166 4.0143787
-0.6962030273 -1.608031243 0.3709081843
2.705176099 -1.318354063 1.2522029
4.014872319 1.386988522 1.89441867
-3.53212679 4.599058438 2.713382802
-2.290231851 2.523370408 4.887165775
2.746472513 1.0462977 4.067849838
3.501764777 -2.766015261 -0.2056922578
3.252772948 0.09819309353 3.778115069
-2.932786049 -3.099334612 3.685983241
-2.442361589 0.6439914334 4.657350444
-1.298128216 2.263963303 4.870677266
1.779191558 -0.969559107 -0.4886341689
-0.2994180633 -2.770492408 -0.5206232453
0.7949239573 -4.048391179 1.399232112
-4.418230152 -2.842529293 0.6479250262
3.430269152 2.251554481 0.02286123125
1.206411178 2.409910083 4.581352949
-3.528840654 2.180227981 4.150142198
-2.61784239 -3.384533416 -0.2952821088
-3.953049328 1.484393361 1.464986444
1.917272789 -4.179577857 2.987716122
-0.1086112402 -0.01081597279 -0.02574448987
-4.040028779 -2.713134793 3.331827269
1.247147818 3.808083386 4.231385724
3.846205355 1.308250719 0.699204036
3.100594487 3.424182338 4.523087614
-3.355585314 4.018692311 4.123208776
2.842997827 -1.906599385 1.150789285
3.635950883 2.569254396 0.3629033445
0.7555024555 3.88955192 3.688152439
-3.668811169 1.060996669 3.712975161
-0.01046332373 4.526228142 1.436846747
-0.2885329267 -2.790087876 3.243799904
-2.670621204 4.046827461 1.215429317
3.787430189 -2.118972501 2.184585027
3.759426908 -0.2327244064 0.4513869258
0.1378061472 1.634592723 0.8670030516
-0.7934643436 -2.923777794 0.4804976662
4.0331148 -1.316600273 2.885726353
3.641528019 -2.412704009 1.208928108
0.8903456282 3.303592513 2.287211344
2.029528981 -2.145394053 3.43236137
-4.008521549 -1.097410783 2.440846412
1.040016929 -4.374054651 2.618245433
4.448454572 3.262084352 2.459723031
-2.730921747 -3.949237675 2.155486055
-0.2851811992 -4.293014484 2.499981738
4.306273068 1.709867904 4.013090792
4.300953282 2.340809545 2.912495748
-2.378528774 -3.692375345 0.9261419862
-1.199211834 3.96760093 4.690850242
-3.62202136 3.719617694 2.537391754
2.828853161 -3.89442608 2.927607715
3.644922653 -3.059284597 0.7477308936
0.1827623535 3.742972451 0.8007960331
-2.932246959 1.961016337 1.760711928
-0.5940136327 -0.6609666043 -0.1149021993
-3.498209699 2.854264651 1.674020154
3.697605681 -4.263488901 2.400850484
-3.235042084 2.997460242 5.015963632
0.1865693191 -0.2530234938 -0.1120803962
3.623240412 -2.581394147 0.9698594294
4.021802951 0.959432531 2.00849731
1.988436041 3.967036167 2.110308926
-1.283458158 -3.278146949 3.62209652
-0.78644277 -3.33696106 0.2905956343
-1.462229395 -3.635285981 0.2127149543
-3.563589008 -3.235593861 1.591023467
-3.747276001 0.06127136985 3.589530076
4.467914244 3.632743777 3.389192838
-0.3908915299 -3.855363267 3.002975568
-3.853611299 4.36729411 2.722606004
0.1033442005 -1.191999668 3.333158359
-0.7851043488 -0.3833072898 4.210618174
0.1025791784 1.907333963 0.3866864142
-3.640265479 2.472106095 3.191718696
2.350300285 -3.71083787 2.860113631
3.573746112 3.925490604 1.904969506
-3.317125913 3.221202431 4.988324618
2.072041423 3.913897572 0.5699477578
-2.260739786 3.374437451 5.098155855
0.9167941021 0.4948095564 4.17727383
2.834745847 -3.224051926 -1.062640316
-3.413309738 -0.7666429858 4.439204819
3.730671597 -2.631320927 1.461850624
-1.408391187 -3.765917077 0.7836735872
-2.170486901 -4.3075494 3.451284588
1.650789293 -4.030413547 0.8898120232
0.892072471 0.1110529916 -0.1154443994
3.953385545 1.275872908 1.159442134
3.407407665 -0.2704390175 3.684890582
0.1834513912 -4.015291599 1.519052269
-3.701278255 3.094281409 2.398259892
2.999703917 4.140031635 0.9217707521
2.714194452 -2.458932743 3.102719999
3.022466685 -4.077109139 0.610574806
0.2890442675 0.7043585951 3.951380729
-0.1632289187 -3.58200656 3.047013512
-0.3822383487 3.40173067 0.7669474158
1.220652245 2.520630464 4.609887928
-4.188067294 -1.828183478 0.08530272634
3.213425959 -0.4685168455 3.659758268
-0.2818511263 -3.13427475 2.909547593
-2.895453072 -2.631687247 3.792400044
-0.008335167122 0.6360303303 0.458402636
3.77977892 0.2997204406 0.2258922075
-0.7336234307 -4.183342649 2.262360048
2.607145109 -1.412761137 3.545693261
0.3020322485 2.208250208 4.024039732
3.973983798 3.199974889 4.411610789
2.504499242 4.019381756 2.158432133
-2.71217135 -1.668661862 4.150171689
-3.386687737 -1.516443863 4.259351451
3.930421903 3.751586085 3.070963995
-2.965772136 -3.555851339 0.4150249135
4.172067877 1.018784896 3.888884863
1.84530359 1.891052274 4.375992543
-1.083808041 -1.923600341 1.432325368
-0.8875205959 0.1868801442 0.139916358
0.474479442 2.881024285 1.073607129
-0.2391799313 -0.2953248615 -0.07440239073
-1.470865275 -4.214447173 2.766144981
3.650623552 3.908369784 2.529311968
-3.723717161 2.746214338 1.078478923
-1.902064546 3.241168764 5.152592846
-1.383057177 4.334705595 4.289283964
-0.4426407028 -3.200504718 -0.560478281
3.092560158 1.329312047 3.933755407
3.928948475 2.599068793 0.8486915556
0.4148290524 0.2046923597 -0.04162078207
-2.126014912 -3.662859661 0.6023075454
2.585712885 -3.836863051 2.850179868
-3.573509437 4.277450412 2.121168938
-3.98988687 1.041913223 1.5740293
