# .PCD v0.7 - Point Cloud Data file format
VERSION 0.7
FIELDS x y z
SIZE 4 4 4
TYPE F F F
COUNT 1 1 1
WIDTH 1264
HEIGHT 1
VIEWPOINT 0 0 0 1 0 0 0
POINTS 1264
DATA ascii
0.3136007749 3.048945864 3.50419538
-0.6688282733 -1.034460559 3.652628542
-3.2236605 0.07169836681 2.918441248
-4.958138166 1.292639679 1.500352066
-5.042502558 -2.934557788 2.262764452
-4.718085115 3.955822858 2.211574511
-3.200392737 4.967670449 1.953157951
-1.214566465 2.562069034 3.151759388
0.8158919019 3.648321301 3.578888345
-1.106538318 0.163932205 3.450803136
2.451358417 4.785505763 2.423338136
0.7023958346 -3.480024215 3.968610268
2.531957473 -2.690480842 2.726194221
-3.523540655 4.68685852 0.8343745466
2.563226959 -0.2751608251 4.068191787
0.2282832888 3.355459127 -0.749635453
0.7864706939 4.60409583 0.4649443648
-3.417952892 1.962946647 2.691574299
2.87830317 1.798130674 3.102971039
1.673278309 2.755719495 3.8706201
-4.991383903 1.635153769 2.068465783
-1.676701279 -3.648491858 -0.5362626309
-3.523693226 3.980650121 -1.082902543
0.8790143181 1.567715242 0.3378504844
-3.437831246 2.735921962 -0.638697516
-2.621437519 -1.63785197 -0.4436515567
2.847677636 0.960259916 3.282167084
-0.138064772 2.971898696 -0.7922717337
-1.7290925 4.682918041 -0.1831270453
2.741143759 -3.492182513 3.057675186
2.551620714 2.064511013 4.060613689
0.511981988 -0.2301865594 3.891310406
-1.803283417 -1.389942042 -0.821583295
2.004642947 -1.381236045 0.1051585011
-4.783815989 4.560894496 -0.8176732751
0.8173018841 1.308361991 0.3755467886
-4.866396934 1.761181695 1.164058097
-3.330844683 -3.673209981 -0.332365259
-2.902188495 -1.635795602 -0.349126065
-1.143114255 -1.634612183 0.3988467716
-3.080512964 3.901072379 2.61688958
-1.215694477 -0.3357148813 3.461792243
-5.162972448 -2.377494462 2.61021767
1.506575092 4.589886371 0.8461612533
-3.769802641 4.229127125 -1.604393311
0.9771386826 2.655397957 3.724098744
-3.151532575 -3.572153477 1.234977931
-4.869802875 1.466495887 1.104744957
-4.332180951 -1.75446934 -1.074071118
-0.3625983958 3.181883127 -0.1108993281
2.434152347 2.449728995 4.097386404
3.055862899 1.358741715 1.956606341
-0.7625196502 2.009022209 -0.8640413404
-2.539529245 -1.925907508 3.282076909
-1.660855574 0.8143612495 -1.010034558
-0.9647180723 -1.862496131 -0.5164489928
-0.5671745822 -3.585885695 0.4775870161
-4.8583413 2.55499774 2.297313439
-1.162400282 3.832023688 2.510864221
2.942407506 -1.394006633 1.240834004
-4.957958884 -1.617219371 1.448989209
-4.251284928 -3.293188498 -1.237331511
-4.977176288 1.980450562 1.956333332
-3.82956407 4.689412663 -0.892785203
3.001014669 -0.2727585893 1.056838659
-2.917924334 1.756878112 -1.03942516
0.09706057917 2.064104808 3.549190182
1.874784669 4.340547219 3.779147075
-4.066799153 4.327428104 2.182103341
-1.835655325 4.306418062 -0.9643689688
1.399686385 -0.2598886781 4.095802354
0.7649824588 0.2181404055 -0.07827892296
3.22226172 4.638696609 0.9856793731
-1.650183687 4.902158545 2.32814024
1.093126311 -3.076649656 4.037147517
1.974197153 -2.590526956 0.1956462296
-0.07853833843 0.5602217699 -0.5741726239
-3.291812328 -3.548493527 1.33630767
3.0546052 0.4669172413 2.040287794
-3.63431992 4.716896616 -0.4353058834
-1.694984001 2.757755334 -1.166536874
-0.3532067686 -3.493808144 3.304744715
-4.441432845 -0.9055162935 2.702000445
2.311397768 -3.572423576 1.280759597
2.833617821 -1.688760301 2.893850615
-0.8690478512 -1.72330137 3.677242491
2.577561454 -0.8415043297 3.692228601
-0.922753852 2.757202277 -0.9643095407
-3.20429792 0.8067327704 -0.2218107805
0.2671640119 -3.223700283 4.091019697
-1.424632939 0.3192366167 2.742677342
-3.108071233 -0.5983660229 -0.3217842861
-0.1624149804 4.009374437 1.126738887
-0.05616506259 3.756103074 3.384444588
3.003372529 1.181247502 2.148450857
2.552203108 -3.009977623 4.119794099
-0.4231351281 0.4670206321 3.577278858
-1.204647179 -3.50300622 1.314864013
-4.571525133 1.172128362 0.06997634417
2.042899037 -3.711554144 1.120111605
0.8372709325 3.94774485 3.547659764
-0.2068150612 -3.400916935 3.526540445
3.160975 2.576690401 1.867553397
-0.1031423868 -2.272618011 -0.2595582313
-4.780009745 -2.629387471 2.801295633
-2.563528518 3.200972593 -1.436021063
0.7604665346 4.042869308 -0.6826182324
-1.140271348 3.139627025 3.158724645
-5.144328972 -3.089562866 2.463805875
2.99553566 1.122108325 2.694461067
3.168607459 -2.291999011 1.078604175
-3.085985274 -0.9288497755 -0.4406185593
-3.779933775 3.005737395 -1.082258462
-0.8505524979 3.34149557 3.207868356
-0.6511768071 -2.472078946 -0.1781779805
0.6701698523 4.61063033 1.888244164
1.324332021 -3.518282037 1.860355579
-4.032369211 4.914328042 1.620403366
-4.920199599 4.330832924 1.772547187
-3.341444278 -3.514917217 2.024898816
-3.704036948 -3.211895198 -0.2567314577
3.063732491 1.745839519 2.017094391
-3.989802576 -2.62526383 2.811556488
-1.250604056 3.625002611 2.725524757
-0.2959700624 -3.504990047 3.003993947
-4.912446397 4.450332243 1.425716867
0.3962000324 2.628477472 -0.6365406773
1.677606815 4.31822633 0.1054233427
-4.941525913 3.74832853 1.497078657
-4.626656278 4.745124311 0.638864683
0.4695432631 -3.543049547 2.876575951
1.154005161 1.843806985 3.630682985
-4.316540273 -3.515883542 1.782994972
2.517539014 3.460639633 3.893317214
2.893708848 3.32259952 2.695499136
-3.685562407 -2.281251993 3.012927927
-1.418237492 -0.2735612229 2.958545554
0.7261137262 0.9380736585 0.06806164083
-2.781032395 -0.7270194342 3.09924003
-4.723078034 0.7611435271 2.487363308
3.318159268 4.320936593 1.041624658
1.59017619 -3.493928771 3.771365436
1.109103687 -2.22593294 4.032168869
-4.495780333 -0.3709422763 -0.3277134058
-5.037200145 -3.357003778 1.682606151
1.40339904 -1.044264612 4.152469454
-4.516750214 -3.459084544 2.244198879
-2.862326406 1.103178572 -0.6992716562
-1.486886157 4.152902674 -1.223164238
0.2850693289 -3.592511126 0.692465795
2.810792133 1.836258832 3.406149555
-0.5486578842 3.29524478 -0.9385966895
-4.421094117 1.843572726 -0.595427268
-2.83185151 5.068687202 1.60379401
0.3637858436 4.618398382 0.05320110325
-4.354791601 -0.5108305723 -0.9643081509
-1.709842503 -1.715893733 -0.7665708063
-0.08901442942 4.712645247 0.5465644799
2.132267824 4.147929728 -0.3556158106
-3.54322439 4.747800674 2.019377055
-4.220431569 4.002108841 2.324229645
0.8633456488 1.495564023 0.5041909897
1.86332629 -1.529617672 4.290437501
0.2705757292 1.882018362 -0.4552550979
-1.084679686 4.235832661 2.73773809
-0.4606520038 -0.6243778929 3.672372886
2.914176304 1.188312579 0.1005582294
-4.388282608 -1.615340634 2.795115901
2.871949199 1.353716201 3.176497137
-3.036896165 -1.057107811 -0.6831326566
-2.630876563 -1.276847178 -0.8644925133
1.301326998 -1.691459282 -0.03030622222
-0.00909596614 0.7820708646 -0.1078888994
-4.348134338 3.269374924 -0.9169408647
3.111633053 1.434105434 0.1050019048
-5.03580057 1.459835895 2.175693579
-1.292926965 2.001234229 2.856677972
3.282803486 1.270110856 1.095088675
-4.732108066 -2.653481623 0.6629838136
1.0059899 2.946082376 -0.524911675
1.142576766 4.592672191 1.581952683
-4.103630057 0.7749796962 2.621030011
-3.196532166 4.570120489 -0.5196847378
2.040278558 -2.694988936 0.2478559183
1.578458798 -1.232657555 4.200366531
-0.4311837008 0.7942899873 0.2452762644
-0.3091169524 -2.335618378 3.857470893
-0.2283186373 4.346210753 3.264766131
-2.78466932 -3.294934967 -0.1285594077
-2.017041781 -0.6313056959 3.283879665
-1.030999017 -2.944260514 -0.3330888636
-1.096249323 -1.655294105 -0.3150773316
-0.4886188958 1.255669354 3.475749412
-2.025176087 1.767521345 -1.179959489
-1.334480016 1.403588583 2.670292355
-0.07642854557 1.693797819 -0.6342084061
-0.3029535345 -3.548683012 2.371321125
-0.823593751 3.492080096 -1.015200208
-3.132318954 0.007646733988 -0.2006035213
-3.555863847 -0.6393187013 2.902455885
-1.461907298 4.60058361 -0.8357176651
-3.851124838 4.648882897 2.375296329
2.32779041 -3.739977611 0.4761955247
-4.922268343 -0.1577568039 1.310378206
-0.1356515057 3.795700252 0.9111068526
3.324800296 0.07464828761 0.7907877677
-1.343829687 3.51507804 2.716712924
0.776668185 1.672986972 3.751242697
-5.013757808 -1.037357393 1.708534331
-4.132403284 -0.2934593238 2.72498861
-3.480597694 2.956717327 2.593759609
-2.788261887 3.657185509 2.713925953
-2.779160623 3.158896863 -1.453173231
0.7914101512 4.64269498 2.322961161
1.336784279 1.2576921 3.913785081
1.034147939 -1.103315378 -0.1707046085
-4.772655356 4.438755559 -0.3898664227
0.8287941929 3.389233737 -0.5900761342
-2.061673693 -3.428650667 3.499695699
-3.397111712 2.262422668 2.656999758
-3.731371778 -0.1304751118 2.813392882
-4.636676628 -2.366322721 0.3512009931
-4.968398636 4.574613884 1.715630836
-3.653303079 2.74197029 -0.8871659957
0.4195230608 -1.624667339 3.943438383
-2.164948344 -3.556826532 1.817897845
-4.00444195 3.500289795 2.387618497
2.774138871 1.78303211 2.873535123
-3.238411869 0.9292765044 -0.2449600371
-2.870752407 4.721251796 1.812172426
-2.341259074 -3.532055131 -0.7597456228
2.005287161 4.091317101 -0.3825116458
-2.59928768 4.563727286 -0.4792995586
-0.9173594454 4.297961051 -1.072955694
-4.4562334 -3.42244953 2.377231408
1.016847849 -1.427538051 4.109203082
2.700371847 0.1013747343 0.1410173794
-3.222717296 4.758702077 1.422890314
-0.4439131283 -3.497792114 2.780992836
-0.1693647162 -0.9271230245 3.776410107
-3.851354586 1.803442225 -1.62217241
0.4970845417 4.937665646 2.750154815
0.2170044326 3.64441312 3.437317778
-4.44486305 -2.644791238 2.858189116
1.640109809 -2.032117946 4.309641051
-4.54154677 -3.49337967 1.828997413
-0.5787117215 -3.539382535 2.511043277
2.699488725 4.72327394 1.832665183
-2.201675824 3.252885905 2.897966725
-1.187854966 -3.493813379 -0.2224488981
0.7842351981 1.944820883 0.08273192749
2.762888072 3.199744333 -0.1037310073
1.015808828 -2.329947968 4.163984163
-0.5063193127 -3.514585911 1.390200964
-4.441946751 0.4039961364 -0.5626690715
3.070123613 4.343400141 1.932996525
1.196324344 4.531233701 0.3626002606
-3.998854593 -3.308771782 3.033929222
-0.8614048633 1.408901288 -0.8385413309
2.831093102 3.449651616 2.637675853
1.103504335 -0.4119131163 3.826670191
3.18600632 1.728051542 1.122565775
0.3656917959 -3.609623359 0.3897349633
1.217696173 2.849236542 3.616341084
3.510911101 4.56690155 0.6235611659
-2.025994272 1.003936056 -1.096285908
-3.930913855 0.09032950835 2.749113928
-1.778384056 3.977987236 2.943475321
-0.2291002703 4.719188377 0.708157465
0.4154432926 -1.148369635 3.931070273
-4.334913466 4.889737436 1.43598055
-4.293048777 3.463290765 -1.121541138
-1.956648116 4.754967063 0.8029617427
-1.644992962 -3.381824675 3.161788434
-3.655822778 -1.780665995 -1.237287329
1.865481269 -3.486643383 4.269420597
-4.700453976 -3.366518667 2.857931424
2.646821886 -1.976845065 3.290025042
2.864442383 2.168698721 2.764583094
2.470238713 4.796708744 2.829081901
2.010802271 -0.5979647212 0.02703797253
3.096161508 0.6341573522 1.812250321
-4.538571403 0.4796679547 -0.2066808772
-0.03498248781 0.6625357982 -0.4181880094
-2.378065121 -0.8348661226 3.210120857
2.876894682 0.1436720876 3.065998992
1.270260427 -1.086389934 4.144111522
-0.7468959412 -2.837108845 0.03837237245
-1.60373495 -3.682630685 0.08343857391
0.7925519657 1.324719245 0.4754937866
-2.511493554 -2.862917275 -0.8536148255
-2.709758355 -3.578698332 1.147486871
1.2686073 1.86346746 3.851703929
1.380756912 -3.472531108 0.1254193727
-3.395674323 4.677322621 0.4305506201
3.104149139 -2.19876038 1.681721495
2.409423884 -3.54670505 2.138093816
-4.374982634 1.887142949 2.468293527
1.322768346 1.54765707 3.711649263
-1.508043035 -1.287926502 -0.7490958965
2.96634563 -1.282539769 1.953530312
-0.3574719657 2.870069359 -0.5968380677
2.373728041 0.01413329831 4.295528622
-3.0338675 -1.175458944 -0.6740522158
-0.1808420122 -3.463923239 2.11348004
-1.612143941 -0.6185472465 3.124508069
-4.72312129 -0.7249123715 2.61451745
-0.09708643244 -1.637128429 3.850426828
-0.2109084693 4.793272532 1.857627158
0.3456375867 4.309068102 -0.7942106413
-2.864597309 3.621285533 -1.528409954
0.1612547031 2.309299821 -0.6814735657
-1.653203578 -3.264420468 -0.6139677565
-3.561220922 3.751040195 -0.6632601446
3.103645523 0.5177161498 0.2113346501
-1.257727671 -0.8663855024 2.922061386
-1.519295529 0.6391129095 2.927331775
-0.7278087804 -3.457996468 3.527470953
-1.008868307 -1.079259205 -0.6637087212
-2.490164795 -0.7253927087 3.162302296
1.057167786 -3.25082645 4.124203783
-3.936813759 -3.290138482 -1.025967031
-2.066585658 -3.308071854 3.498021239
2.339007578 -1.127890895 0.3506735742
2.460052248 -0.3439933496 4.349162548
3.212175263 -1.984837529 1.041397954
-1.016161342 4.448880285 3.074343282
-0.7225796287 -3.480182267 3.097072432
0.1952585631 -1.816604786 3.928909344
-1.269610381 0.9501789679 2.873981074
-3.486641093 3.151670961 2.583601962
-4.107704079 3.529842999 -1.689815935
1.10974306 4.350442619 3.584100355
-3.014037004 4.566733685 -0.5921126404
-1.808875437 4.321158862 -0.7692461181
1.826527051 0.2095170813 -0.06546407146
1.213566574 -2.183470221 -0.003150311935
2.539100783 1.842317221 -0.04396372056
-4.573183901 4.900586579 1.668541374
-4.967535448 1.358558675 1.898787344
2.860143832 -3.308132654 1.398561025
1.974862946 -1.151371241 4.307210065
3.212804555 0.9643272111 1.411385722
-3.939941916 -3.24630145 -0.5399265731
3.113058831 2.034465651 0.3839438663
3.233123519 0.879834047 1.302187364
-0.1637754338 4.770283554 1.35558261
-1.317278057 -1.286966911 -0.7177794123
-3.26962727 4.702670562 1.382631898
-3.807007932 2.56355446 -1.095705508
-0.2417086996 0.6198292083 -0.3675080435
-1.226204317 1.027713394 2.727467689
2.366657581 -1.986049864 0.2419257761
-2.240753894 4.866319197 1.422944041
-2.474585876 4.967138058 1.737264348
-2.206210719 -0.1232094508 3.18845694
2.265277853 -0.3867043033 1.072456712
2.586700098 -3.498755252 3.833206254
-1.849697443 4.947961953 2.750976713
-3.226809518 -3.100119119 3.196404097
-2.028629575 4.584675676 0.9158917766
-0.2739897865 -3.45501953 2.085735465
0.3721832364 -2.911146823 4.060021534
2.626690013 -0.06138801864 4.075206929
2.791365389 -2.127455805 3.011007186
2.697247488 2.177791248 3.43427131
3.287590728 0.3713370885 1.069060588
-2.042147066 1.306066831 -1.11585229
3.184171978 3.425322875 1.308934285
0.9015521293 3.313378213 3.620763121
-0.3404752515 3.075095588 -0.2603328672
-1.249928606 -3.525796899 2.752279984
-1.261551856 -1.186708651 2.939688592
-3.276518333 3.303468562 2.619245887
-3.217008297 4.357856379 -1.225722401
-1.064580006 -2.034868564 3.651183062
-4.127774617 4.457643609 -1.770011582
-1.794085528 4.802097764 1.25161592
2.576717562 -0.8726647988 3.895354281
-0.5807793682 -2.413992743 3.800718191
0.8004320598 1.922099477 0.09308099164
-0.8300619929 -1.140320072 -0.6057165998
-5.015032518 1.485824661 1.662957521
-2.577875863 3.500026591 -1.451745784
-0.7473757068 -3.122690163 0.0652016299
2.851919182 2.794059987 -0.04107800943
-5.197921372 -3.422380801 2.622127146
-1.043061483 -3.674963301 -0.2898475205
2.911667408 -2.963741827 0.5181475643
-1.926168465 -3.529184521 2.06561643
-3.934445382 -3.140029126 0.2954994837
-4.248368187 -0.5357194148 2.714281042
-0.7981506029 -1.733594785 -0.1853040428
-0.7717866084 -1.631953724 3.673418551
-1.132025785 -0.542371618 3.488837009
-3.984070694 -3.428711986 2.881692878
-0.9307066456 -3.472562634 3.555265869
3.334979414 1.42671296 0.4746368665
-2.223132686 3.14851333 2.891700984
1.393030522 -3.562124394 2.910146499
1.249529034 3.984895219 3.526747026
1.643555028 1.953803602 3.953154363
-3.105050305 1.94601026 2.762984627
2.114327872 -3.017858278 4.502342501
2.367113393 -0.5550621323 0.6070589806
1.248743297 4.537916454 1.000946322
-0.9044779354 4.622223867 -0.6802778527
-4.372845247 -0.409236261 -0.8880474829
-0.5579532929 1.567606562 -0.3315987334
2.227266683 2.661724268 4.018505586
-0.2788752658 4.848867543 2.144200273
2.625561801 4.714505813 1.803828317
-1.882997637 -3.450272328 3.231965505
-2.810135604 -0.7298017502 -0.519253374
-2.956361994 -0.08793742995 3.010753282
1.382460218 -3.523012023 1.656650371
-4.167978163 1.735954931 -1.644177822
2.170763788 4.254455587 3.87934153
1.543753962 1.461321073 3.959558571
2.755240922 -1.253063703 3.810333022
-4.701069132 4.216330366 2.197498316
2.852610199 -0.550054614 3.226223218
-0.3152242765 0.2612496041 3.604125913
-1.861260783 4.858215509 1.945200943
0.2791565895 1.183199808 3.680957058
-1.812173777 -0.6264781655 3.323699862
-1.094231231 4.536650618 2.795155889
3.001149888 1.72213281 1.669108907
3.361716941 -1.67055623 1.175744426
-4.169826427 -0.6677032537 2.607778139
3.378607454 3.672100626 0.6785602909
-3.579491299 3.558008367 -1.384191038
-4.306812059 4.767045785 -0.1962952196
2.96436436 -0.09252253954 2.792846756
-3.166432724 -2.125035264 -1.112800859
-1.289279157 -2.984434758 0.54585419
-1.396198071 -0.8781203335 2.886237095
-3.801109448 1.753427262 2.631019811
2.737303506 0.9222657991 3.669818543
-0.7365024382 4.787168323 1.10365808
2.193492868 -1.278313168 0.1403505778
1.536029296 -3.47861671 4.287849508
1.524788189 -3.424812061 4.3856235
0.00234350375 -3.596524814 0.5958621782
1.098459702 -0.948104652 3.861588108
-2.755623908 1.178544671 -0.9374662823
-3.216058531 -3.382631795 0.199689299
1.500452647 -0.03421182935 4.087702902
1.183389393 -3.249544127 4.074618605
1.860876406 -1.439234663 4.29605571
-2.717628408 0.3089175701 -1.217000607
0.7002857062 -1.426522241 4.023336577
-2.880311552 -2.391677929 -1.009888043
-4.02942173 -3.213953323 2.671475688
-4.432422502 4.954445834 1.917346773
-2.788882043 2.11382557 -1.368324686
-4.098595645 -3.409094394 3.04083399
2.649289704 -1.883785924 3.479665558
2.094790058 4.834192587 2.944680186
-1.836303478 3.213533501 2.972276266
-2.947503335 -3.669163975 0.06133651212
-3.584261351 -1.817595945 3.008171187
-0.8540632309 -3.488316676 1.623152283
-4.204776536 2.689636576 -0.9325155845
2.632542735 -2.560984586 2.945344867
1.581332906 3.556910172 3.770894875
-2.412839537 4.356955374 -0.8360046553
1.394106468 2.686640201 -0.3868445799
-4.754531005 1.847640192 2.390878896
3.201104446 3.458814126 0.3533170405
3.149821493 2.656161587 0.227320263
-0.5251057755 -3.559973122 1.103131788
-2.956243919 1.075202466 -0.6998317426
-3.790040874 -2.479232598 -1.183761069
-0.8811374406 -1.609459774 -0.1862191599
-2.443578313 0.1989622638 -1.151448129
-5.084305647 -0.4018822626 2.147596091
-3.635627733 4.49200095 0.03391694353
0.7664620621 -2.842656565 4.148553561
2.63838965 1.002794736 0.0417918532
2.899216408 -0.03213646815 0.2088448687
-2.376313883 4.83331742 2.458739499
-4.486853513 3.127975575 -0.318519551
1.855298768 1.1066433 -0.1498979133
-1.178095258 1.83628917 2.932354806
2.719040696 -0.9635477098 3.017733294
-0.7548723346 4.583981683 1.772776857
-5.129496471 -2.495702491 2.320297247
-3.545180466 2.855758487 -1.618383957
-1.591963117 4.645856049 2.918903427
-3.548879159 3.789241256 2.507630321
-3.955276327 4.267445958 -1.663742047
0.7418735388 4.69410657 2.314639611
0.8753285011 4.705840408 2.329141711
1.742099267 1.202525908 -0.2025233765
-0.3356534588 3.449394261 0.353946452
-4.416787533 -3.248650809 -0.8384041436
-1.21175361 -0.972761815 -0.7107858152
-0.1258645792 4.728631543 0.7280303364
-3.424977843 4.317235889 -1.16673694
-4.222966218 4.446077362 -1.249582056
-0.3171576708 -3.496767183 1.854086897
-4.415455011 -3.499294172 1.750489312
-1.646795039 1.579906574 3.166479924
0.6786082572 -2.236910702 4.066768825
-2.972639964 3.667481476 2.655359587
1.681367252 4.845602813 3.046639049
-0.510966283 3.695915725 -0.9510712826
0.5645243347 4.7136124 2.156019711
-3.591179674 3.694547644 -1.053858424
-3.335822636 4.513645785 -0.780819349
-3.994008222 -3.492526327 1.76595307
1.063705236 0.6153811198 -0.3085406266
1.101477016 -2.343244423 3.981402572
3.225256257 2.986147619 0.9188313397
0.007675632799 -1.332065021 3.855182668
2.64750419 -1.510537372 3.377854126
2.40284022 -2.982662761 4.133979378
-4.803177053 -0.9743815423 0.7904451046
-1.336852403 0.8236240845 2.696616401
-5.070852515 -0.1460097177 2.115975003
-5.007663036 -1.999898327 1.571232871
-4.832787 2.557432442 1.005466892
-2.233095064 4.631964224 0.6307113287
1.922051995 -3.477842858 2.790478176
1.950884566 2.539730004 3.973193461
3.02162965 -2.958008847 0.787455368
0.2979603155 0.8311034547 -0.4952216526
2.03691322 -1.331743168 1.443920425
-2.01008442 2.493040422 -1.222091257
-0.8878600528 0.9134722158 -0.4458494102
-1.403274419 -1.783830308 2.961084551
-4.543334113 1.551872162 2.455841285
0.4836363641 0.7645021264 0.1232430653
0.5008485434 5.057955823 2.643333873
1.672929594 4.813197107 2.443671672
-1.337925465 4.871306046 2.292762497
-1.034504876 -0.7021272527 3.426386401
0.4370044772 2.890487577 -0.6727391144
-3.942507246 -0.5369797475 2.625338559
-1.940446195 2.2663482 3.062621709
0.1636259608 0.9421144832 3.672523256
-2.824836083 4.593064095 0.7966128641
-3.2310563 -3.723286136 -0.4206610728
-4.930658082 4.762969661 1.913114355
3.324120958 0.9967371388 0.8151700132
3.028798947 4.323628626 2.621317919
3.160729987 -1.572452974 1.43761286
-0.6213668992 3.512772482 -0.96740057
3.234675611 -2.117252617 1.26768114
-4.23089453 -1.270824013 2.78216273
0.3178097358 -2.480544406 -0.2111626543
-5.016453957 0.03439315233 2.002913598
-1.183138434 -1.739867714 -0.2781821642
2.800053439 -0.06628952478 0.1668092908
-3.540832172 4.616365643 -0.3240239407
1.81357627 -3.508392055 2.407857328
1.970638488 4.74487211 1.880242384
-1.818738567 2.483639541 -1.170495304
-4.257528487 1.178692828 -1.325060547
-1.344206952 2.72853396 2.772888325
2.605470325 2.625419016 3.669219533
-1.737296439 0.2110811047 -0.9703719577
0.1903038327 1.916956921 -0.615315033
0.3077906734 -1.908120959 -0.2429256697
-4.423094165 0.1138192474 2.626492823
-0.08180998699 -2.591502004 -0.2477294027
-2.626582588 -0.3584307256 -0.6748368723
1.292523346 3.295317854 -0.4640430397
3.137243602 3.011268497 0.2009139704
-0.8454310889 -1.376914211 -0.5821322389
3.295127395 1.179831816 0.9910761105
1.094714147 0.3046169767 -0.1886365273
-0.9058713392 1.198080555 0.1179857403
-2.16995733 4.876243011 1.981545663
-1.424629301 3.718091967 2.675026346
-4.65056211 4.845608105 0.6313280904
-3.277252522 2.200455997 -1.514209867
0.9550865738 4.082010199 -0.6239025651
3.282928855 -2.685360214 1.255863392
-2.718418525 -3.221523776 0.4831752011
2.588331852 2.453168206 4.022106943
1.047449513 -3.6665605 0.1477546754
2.128053946 -1.101422426 1.115418432
2.685078943 -2.390279842 2.232498166
1.365969519 -3.498058947 3.429029918
1.079303404 -0.8660344066 3.861587339
3.076200518 2.175615886 0.05863500421
-0.5533073069 2.002854022 -0.8164061411
3.351215604 0.3014471783 0.3522054129
-3.060715475 3.001007708 -1.523465931
-0.9611703432 -3.552225647 1.174072942
2.098731696 4.36399527 3.829380059
-0.4386791728 -0.0373344846 3.609402266
1.976052314 4.529667579 0.4885524957
-2.886812631 2.358387065 -1.425384441
-2.118385976 4.764905949 -0.6290985309
2.510920353 -3.544098157 3.304490852
-1.866944625 -3.548666931 1.88316647
-0.679386928 -0.548107797 -0.6275385463
2.681617233 2.938404834 3.288755501
0.3929151392 -3.559497658 1.114982576
-4.980719254 2.42789784 1.921514249
0.6836025463 -2.722726091 4.119554883
1.937237991 -1.811163796 4.331775777
2.801552255 -2.979468858 1.66142469
-3.764504927 -2.623603823 -1.192786298
-1.294449472 4.739710015 0.4406335991
1.70969978 4.537305154 0.9065627729
-3.284884884 -1.909798033 3.084723851
-0.472004455 1.543300306 -0.624595231
-0.05565107056 4.788475625 3.267455856
2.78838624 -3.133996118 3.427068526
-4.776563296 1.533179748 0.8005344486
-0.7593932977 -1.326565639 3.668106764
2.928785537 3.319978812 2.579057642
2.122942411 -0.5649274838 1.370365616
0.8156098048 -1.964650036 -0.1001630782
-4.88336349 4.462663715 1.319401494
-2.998994829 0.5766564409 -0.8399544163
0.5599413419 3.636669 -0.6885483133
-0.4547583879 3.767390388 0.745538976
-4.267361901 1.353387683 -1.346277947
0.8075536501 0.9213106036 -0.2262201959
2.124446516 -1.338326773 0.9433716742
2.927854768 -0.5775695836 2.936262157
1.118234982 0.4655000807 3.938110008
3.209571949 3.061668269 0.8160449373
-3.772483382 3.707976619 -1.215045898
0.1788850661 4.562786149 -0.8206962758
0.868443208 0.9179574221 -0.3765190882
-0.6151713411 3.378499021 -0.9630226139
3.451653284 3.888391608 0.05425744657
-4.989917372 0.653612771 2.44063548
2.09713509 4.163954789 -0.3153390982
3.199019208 2.46372355 1.178270541
-0.8459343386 -3.318150919 0.276325439
2.678929099 0.511241805 3.805381394
-3.16909717 -3.580021499 -0.6161007028
-4.288031521 -1.676861991 -1.271912902
-3.265908833 -0.02574381135 2.9191276
-1.263151559 3.918992966 2.698006904
0.4922802657 -3.188363885 -0.1040741657
-3.054196184 -0.4881302616 -0.5637116705
2.550454882 -3.236862611 4.441532128
-5.02346865 0.7408424973 2.153837334
2.456052372 -1.291629476 1.969483677
2.234329621 0.2063434265 0.007454912823
0.7690637123 -3.665074484 0.01702452138
-0.4157430224 -3.013092915 3.907569931
-0.3157807543 4.698975126 0.2976518671
-3.130656288 1.26680699 -0.7724267951
-4.62644108 -1.816463957 0.3053442457
-3.996592707 4.702459358 -0.6609369403
-3.174832706 -0.6494184862 -0.08527404218
-1.990691999 -3.649485944 1.147453925
-3.543731072 0.3682511307 2.819475642
3.255759228 0.7887410814 0.2867659048
-2.01983849 2.000932519 -1.174937079
-2.199753569 -0.936050993 3.2683668
3.296769789 -2.164756754 0.6071120732
1.523457297 4.584875688 3.662017905
-0.07939107211 4.834795271 2.205756262
-1.233471518 -0.6334118196 3.481898415
-3.403015576 0.5423887659 -1.382859932
-0.7327919335 4.74669702 1.837387124
-1.997832886 2.382874791 3.032183105
-3.258776537 3.972292448 2.573584306
2.637937942 2.146555449 3.539816639
-4.985989019 4.104344965 2.142052845
-4.526614353 4.618612665 0.6217366186
1.500535781 -0.4180569609 4.10400844
-3.780106327 -1.985773895 2.971271353
0.8090623448 -0.7385051982 3.978312397
-0.7429876371 -2.535583433 0.0009476381978
-3.694865288 2.553642476 -1.448676584
2.709200581 4.451013031 3.960368137
-4.039660661 2.612400685 -1.157801488
-2.223324408 -2.720742607 -0.8130287335
-2.032303686 -2.112104704 3.414453879
-2.902948829 -1.825218032 3.168665251
-4.087808986 3.247188637 2.288043105
2.79966118 -1.367754999 1.318634786
-1.287289705 3.89843998 2.448416237
-4.879015533 4.214967254 1.656700327
1.369204033 3.846163389 3.547431166
-0.0491980072 -3.518234044 2.882291555
-3.100697615 0.4043108814 -0.2367395968
-2.211298935 4.237950862 -1.192754879
3.115084083 0.5398398896 1.72732209
2.237779735 -1.831763213 4.416571803
-0.6513711207 -0.2321616609 3.585664203
-4.721651187 4.776950198 0.6363103571
-0.2158140493 -3.107688109 3.932794175
-0.441971297 -0.2441649122 3.638856607
2.75729002 -2.980945361 1.979889145
-4.639981605 -2.044916427 0.3300337482
1.248582439 -1.70591611 4.019964751
2.378054087 -3.528188338 2.719060299
1.887026856 4.83826907 3.00199212
-1.824344721 1.737849316 -1.105022496
-0.173283794 3.00768628 -0.2579714908
-4.624766629 3.155403021 2.282441491
-3.605804946 2.539239207 -1.419097674
2.697069608 1.798587604 3.17147126
-4.212647213 -1.700752776 -1.036736407
-0.8941252879 -2.777256324 3.75492433
2.354802026 -2.397500599 0.3073048336
-0.7984547835 -0.2664637414 -0.6875589583
-2.819901719 4.686384249 1.330196291
-1.100395939 -2.283509151 0.4693540831
-2.429716315 1.10032602 -1.211442145
-2.568532886 -1.179032169 -1.021170435
-2.109270845 2.486341617 -1.234848008
-1.099101176 4.706589655 3.051264345
1.905743613 4.147840506 -0.3664453249
-0.1130161981 -3.167713691 -0.2025364
2.262059844 -0.6412702389 4.345925717
-1.243498682 -0.7491863283 3.1416257
3.379780928 -2.665645829 0.6700712324
-2.488603842 2.615745518 -1.350766549
-1.868803498 0.7329949325 -1.020375294
2.494646728 4.335843576 -0.2575471734
-0.9705491109 2.553646802 -0.9807512293
0.9835697851 -2.54009601 4.040168241
3.206356049 -2.540830664 1.702077558
1.517632891 3.130758311 -0.4316794251
-1.828939197 -1.312342458 3.396093957
-2.141420843 -3.08502284 -0.7378184089
-3.155746149 -0.2157358612 2.968127356
0.2763345475 4.389306744 -0.8340265595
-4.169790979 -0.9178585516 2.741690784
2.722916319 -3.36396941 0.4893102625
-4.084592273 1.464862846 2.573565678
-4.730100624 -2.200504472 0.733679245
1.927840796 -2.131075163 4.395986169
-3.007952695 -3.289070838 -0.7885552471
-4.39409987 -0.2845321447 -1.077393405
2.934950214 -3.427745447 1.105044969
-4.411677473 -1.387536311 2.736672587
0.884667498 -3.106078426 0.001381878107
-2.354602507 4.613276537 0.005775763907
2.881001583 -0.2417283066 1.525118068
0.9714886597 1.315353526 0.1790774641
-1.173441036 -2.511993228 3.654908702
-3.336635954 -3.48309312 2.341949645
-2.87001901 1.695265773 -1.224421312
0.5309970412 3.436240366 -0.6829254924
2.276007426 0.7616359339 4.228845343
0.6819277512 -1.223640691 3.986518436
-2.818590954 4.712918123 1.726340521
-1.629053323 -1.034321082 3.258975404
-0.3132676458 -3.224383106 3.941278137
1.651696869 -3.536074781 1.832377965
2.597744538 4.086214071 -0.2319276694
0.6705900768 2.095753888 -0.3649036937
-4.034403005 3.274087291 2.423555477
-4.479252187 -0.7844828512 -0.4752111054
0.8092136711 1.613880069 0.4657284572
-4.951521067 3.148753163 1.969608353
2.559366333 -2.751147595 4.393346868
-3.708064811 1.366427094 2.674563294
0.8206098167 -3.58572993 1.020493128
0.001684226542 4.707179587 2.028597183
0.7592992649 1.053307149 -0.3442794256
1.015461912 -1.942254264 4.119677569
0.4388091307 -1.192742839 -0.2841251961
-0.2136987391 4.032106884 1.19932484
-1.639167491 1.314212266 -1.025487007
2.106004165 -3.693700626 1.332935633
-1.155040733 -1.604332343 0.1129207387
-2.801152843 2.189081812 -1.408195853
2.952035603 3.864185779 2.962047509
-1.439627943 -1.207117356 3.02790794
-0.9165032914 -0.6997017013 -0.6552530651
1.780266898 4.492459078 0.9395340311
-4.279805165 4.773257816 0.007817051334
-4.4286232 -3.491099954 1.876817455
0.02361495816 -2.384998546 -0.2702984717
-0.2651507263 -1.644754835 -0.3284656645
1.22935957 4.491108385 0.6724068916
-1.430568725 -0.0794030141 2.919580899
-4.932432055 1.082447857 1.424343004
-1.276192473 4.810456994 1.27684032
1.236780041 -0.393051213 -0.1511350237
2.423186913 -2.314323936 4.124380316
2.864010618 -1.879445747 2.432327756
2.323225869 -2.405597791 4.480862014
1.947981094 2.126827022 -0.219297742
2.546129551 1.464317928 4.129769862
-5.032871145 -3.222593966 1.678965494
1.421875944 4.248210941 -0.1559575593
2.601833449 -3.256079006 4.133097487
1.381796187 -1.226310629 4.157311612
-4.863698235 3.085126703 1.264160123
-4.078914716 -3.215694127 2.842956904
2.966410238 3.786626039 -0.1127989651
2.863194435 -0.7356868357 3.124365858
3.072528057 -2.034162244 1.629945252
-1.641137926 -1.627767968 1.014788758
-4.355607757 4.040474145 -0.4668423999
3.053549816 4.309930084 2.530876087
-3.213962469 -1.665764126 -0.8994186864
0.2597614714 4.686009496 0.4227802724
-3.306171937 4.462824091 -1.134360985
-2.33577459 -2.500645327 3.376302206
-2.891261301 1.642640942 -0.9228435301
2.982759662 0.3906955732 2.22083945
-3.037654856 0.5063344374 -1.093222926
-1.118568507 -3.545621792 -0.2843990841
-1.793580794 -0.3202528155 3.343879124
2.649535559 -0.382703191 0.3693166401
-1.09809325 -2.7404554 -0.1509458358
-0.9449852407 3.272516552 3.198316071
-0.5627683809 1.802145974 -0.7968668349
1.122699009 0.8860077961 3.725007435
0.309808479 2.953090131 3.53446635
2.617687914 -2.58168792 4.074488496
3.057960338 -1.255240639 2.192731236
-0.9690886224 0.8868701543 0.06921134371
-0.6945701224 4.402065222 1.559219318
-2.658583375 0.6769274757 3.000697469
1.048221427 -3.543608492 2.933390293
-4.656937699 -0.6942894724 0.28051143
-0.1538878767 2.505178608 -0.7799581948
3.188807218 4.380892348 2.041134192
1.208393751 -2.047956895 -0.01871209702
-5.004562859 0.7565647247 2.408330633
-1.560592528 4.632245041 -1.203407607
-3.8297405 -1.100179342 2.880542228
-2.97420392 -0.8545355965 -0.5512591996
3.136571104 1.971661171 0.7900213329
0.9127331382 4.138171491 -0.570923441
-3.074142966 4.162600434 2.576361021
-0.7299435819 -2.723208362 -0.04409845443
-3.611301606 4.785576005 1.42680328
-3.814597347 4.149022237 -1.050345827
1.982916739 2.396310243 -0.2360161201
-3.920272442 0.8565284187 2.665264686
-1.735822149 4.57193917 -0.07603872999
2.048363328 1.409247758 -0.1377634334
-1.901032557 -0.4326173412 3.297371277
2.790824476 2.924208919 2.893397323
-3.972716539 4.001607189 2.38033584
-5.164966643 -2.671740642 2.622065776
-4.888397075 -3.416374606 2.791329957
-4.935603836 2.719885166 1.720631093
3.104213733 2.11398519 0.2475397419
3.38367912 4.29315257 0.7442593573
2.090054946 -1.313816609 1.123827574
0.6837423651 4.598956552 -0.3557485196
-3.89348022 4.036848557 2.263644077
-4.156485122 -2.440630824 2.747410529
-2.197059663 2.603133531 -1.286515217
-0.7355549652 -2.726272865 0.01951776352
1.359477078 3.73539431 3.558450504
3.217698141 3.453779235 0.5497604131
0.5010472708 1.790222056 0.385770499
1.6042409 -3.642727595 0.3819940124
2.363189803 2.596089949 -0.1553452496
-2.747106245 0.659313257 2.984762687
-0.3449607939 -0.5333169782 3.68414235
-3.278922597 1.811309395 -1.475224482
-1.231588897 4.556155191 -0.955038254
-4.669516484 1.673139306 0.3031120797
1.160028924 4.229134503 -0.2382493353
-0.9276296874 2.803426589 -0.9846874892
2.379123334 4.670250118 3.885027929
-3.854598058 2.827376727 -1.502316782
-5.03093324 -0.4046733082 1.740322263
-2.883688104 -0.3256332475 3.048883117
1.907099429 0.7784159203 4.123481678
-2.174470149 4.703849524 2.780347048
2.859698803 -1.318897096 2.762844946
-2.620048831 -3.426406346 -0.8342863471
-4.356175049 -0.7712346215 -0.7348060061
-2.595716669 -3.524280196 2.007092422
-3.082475721 4.244538843 -1.389494421
2.712318513 -0.8432362258 2.89705394
-3.549456732 4.737288519 1.754198021
2.758772932 -1.653498586 0.309667316
-2.531788119 1.676397022 2.960630032
2.005678377 -1.31818239 1.509927987
2.626894729 0.4437712053 0.1040371762
-4.72981996 4.12475948 0.6915648279
2.9935003 4.587677595 1.534718573
-1.181801794 4.671726895 -0.3325711141
-3.460511899 -3.370346146 0.01932755331
-3.181243788 4.680446971 1.001310735
-2.932592927 0.5822010849 2.940122319
-4.942787078 2.405698625 1.491502325
-4.444649398 2.917512529 -0.5863187584
2.284054405 4.57829823 0.9585027288
-1.432313382 0.02643565468 2.788970157
2.679347213 4.468104189 0.644196831
-4.139303776 1.671773072 -1.700523507
1.301004493 2.094605864 -0.4006791505
-1.496690686 3.908151271 -1.2064626
-1.837109963 -1.997943027 3.447640392
-0.8709706964 -2.410848904 0.2699464292
-2.300368739 -1.886068337 -0.8977660782
-4.949106778 2.210346676 1.502069743
-2.615393809 -1.628842508 3.218829561
-1.013475714 -1.903008256 -0.3239917096
2.704991641 1.670320454 3.920456179
-4.08832453 1.247750539 2.441106838
3.222853243 0.9942302582 1.293248659
-4.389604678 -1.119566422 -0.8388690239
-4.638184335 4.344414409 -0.6598249183
-2.55252734 4.552804745 -0.286364822
0.5872301743 4.696086577 1.744948785
-1.116611954 4.826046101 1.83457322
1.267536412 -1.625711404 4.156936223
-1.267908577 -1.437835998 3.310629196
-5.188066674 -3.215173483 2.668928557
0.3441478818 -0.01737862613 3.803018227
-2.155631432 1.312188999 3.058080911
-4.519603084 -1.372292428 -0.3201967458
0.4050822897 -2.957770103 -0.130505112
3.128279572 2.240072871 0.34236529
3.067093315 -1.934510077 1.647376174
-0.4433573663 3.192682021 -0.9050520483
3.097909934 -2.040559049 3.728466377
2.942868434 3.956578935 2.942599096
-4.491836411 -3.270215151 -0.5496921156
0.9191270938 4.03494167 3.567815831
-2.948545484 -3.316767275 -0.3562860988
2.421152498 4.739398832 3.381062434
-1.105018633 4.457133988 -0.8105447649
-4.056225481 -1.794535686 2.883020005
-0.5340862324 4.545945977 -1.0153868
-2.255105356 0.2754549184 -1.083923982
3.361013461 4.607922819 0.4966930399
-4.301116521 -1.688864738 -0.7690672205
-3.556116767 3.957551467 -0.9879774376
3.163716983 3.634029924 1.680855147
3.258337661 1.280343437 1.176923213
-0.04383414928 -2.118055269 -0.3446151298
2.999728355 -2.761179959 1.918332355
-4.728412999 4.36112822 -0.3731300982
3.084101542 1.356653226 1.861391652
-2.967735857 -3.392734168 0.09155057387
1.718594532 -3.510749204 2.058925957
2.175246829 -3.566680266 3.025122168
3.319569886 0.1236655203 0.6688677321
2.961505373 -3.092589919 2.306219464
-1.316203083 -1.714939925 3.537444699
-0.2484337898 -1.079914335 -0.4439278336
1.410931752 4.664834923 2.807585144
-3.704886581 4.706955522 -0.5679342481
-0.3572264743 3.230301724 -0.07173546881
-0.8726704508 0.7031147986 0.1469176043
1.600246761 4.315155254 0.07432328056
-2.271358177 -3.156203085 3.453542952
3.141716193 4.577083669 2.201165762
1.427328518 4.282937885 -0.02354898842
3.156275951 2.852099101 0.2159555228
3.045578358 1.185757259 2.07310478
0.7405433823 -3.488837701 2.224566234
-1.417110716 4.559819861 -1.003214317
0.86531792 -3.457172308 3.719963514
-4.062370064 3.996548885 -0.640011099
2.748367666 -1.753520893 3.092165157
2.46742407 4.340959368 3.939974382
2.647309415 4.286909915 -0.07103305892
-3.441773129 -3.5372768 -0.05183445956
-3.065811977 3.166187853 2.667664146
-3.99287116 -3.220106349 -0.3431403092
2.54303219 -3.634194069 2.419972336
1.635607292 1.552343198 3.981015728
2.577054589 -0.2760484483 0.1521434015
-3.40772865 -3.701683599 -0.2464645438
2.36629934 3.548896343 3.965302003
-1.179278973 4.845101952 2.486896198
1.364592865 2.749815626 3.626640725
-4.844413935 3.077790668 2.251929729
2.158202056 -2.071569704 0.2040714286
2.687464953 -2.069566097 3.423469022
1.136771539 4.056130275 -0.5871875282
-1.125410047 0.5732931931 3.383437143
-0.6284750128 4.780567775 1.937933592
-4.761896295 1.318338935 0.6364436791
2.68794808 4.510973025 3.452151726
-4.043431201 -2.967432981 -1.223002482
-4.581387944 3.067720236 0.07069787251
-1.698629801 4.712494593 0.04226785839
-0.9076920855 0.8333048028 -0.2431599026
-0.6515246437 4.042155836 3.211227009
-4.271941175 4.760691471 1.702601001
-1.624058486 -3.100753031 3.244209742
-2.030805493 0.7486539103 -1.069901526
-4.314324572 -3.1988285 -0.3073074759
-0.9974858036 -1.978369674 0.483472205
1.840407327 0.8124666958 -0.1193317576
-1.355026566 -3.504687101 -0.1583724872
-4.139099106 4.640441398 2.261427427
1.527935178 4.726354047 2.704195276
-3.510634353 -3.569161574 0.2319117047
-3.389306335 -3.030942911 -1.076021982
3.258975611 -1.837998728 1.551634397
-0.7976774843 -1.007721344 -0.5804495074
-1.250446066 -0.3468425511 3.104095665
-3.504982979 -3.209112042 -0.211503271
3.252000699 2.66953691 0.9636685926
0.8655463948 -2.913618141 4.166097566
3.143232593 4.712636501 1.678371256
2.610092526 1.86920657 3.961745332
0.1773690181 0.05081216338 -0.4501692265
-2.60404629 3.349747687 2.794302457
3.006564881 3.559383898 2.7737069
1.371326221 2.753081998 3.822694414
-0.1787406365 -2.23919196 3.868808339
-1.493779318 1.147683696 2.902382296
1.300462803 3.892638705 3.657997714
-4.075441806 1.353515158 2.44187754
-1.928111556 2.591805952 -1.216483967
2.389669452 -3.32109128 4.601031996
2.887515552 0.4754484324 3.131246553
-1.116987973 -3.336222493 0.6140410539
2.240220454 -0.367491698 1.184638115
1.146952525 -3.589080351 0.9895335466
-1.507481559 4.445115858 -0.3142574719
3.267345874 0.8373939207 0.5179587562
2.88134169 0.1395019129 3.16259068
2.709636807 -2.745517567 3.693025993
2.608403979 1.019436342 3.764681803
-4.313218923 4.34523082 2.276112654
1.517504754 0.4513075193 4.042749415
-5.010489057 2.7445086 2.115731394
1.057003171 4.769968802 3.026363116
2.241892181 0.6119452473 -0.02093056198
2.869648465 -3.258377253 3.07343285
-4.742921931 -1.61225595 2.691423036
2.50915181 -0.3852916462 0.1422326117
-0.6168656351 4.703919585 0.2179197538
-1.267594926 -2.077367958 0.3701070351
2.782647013 -0.6952479079 3.416877535
-4.758224179 2.349716918 0.710640289
-4.424976131 -0.9129546912 -0.6569319903
1.89080495 -1.966723169 0.1334554071
-4.254823026 0.8938117579 -0.8166831054
-0.8229248113 2.977308543 -0.9545751901
0.897662435 -3.506834674 1.962015209
-4.515837537 4.151165971 2.225403873
-2.242824013 4.269476517 -1.085868015
-4.58875223 1.763680082 0.1107163531
-1.068560494 3.161556175 3.186722849
0.1320388196 -3.559884569 0.9440317578
0.09800358428 -1.426123643 3.876317417
-5.029448138 0.3488456216 2.184530945
-1.269316575 4.273651977 -0.9381649954
1.770767302 2.897006032 -0.356229061
-3.752436999 -3.113841983 0.7517754425
2.402173848 4.804883468 2.5159109
-1.452101053 -3.532067196 -0.07401501599
0.9227015163 0.6515349419 -0.07868913207
-1.22157682 -0.6764758832 2.906242719
2.937705253 -0.1821990891 2.90041636
-2.241065023 2.078471655 2.985529206
-4.382303556 3.305611693 -0.7159664519
-4.038355967 2.036825672 -1.669727949
-5.190795885 -3.123145194 2.661697616
2.66500924 0.6139392406 4.016323982
-0.4636320183 -3.593057809 0.4821497801
-2.580991037 -0.6468554024 3.135210311
-0.04564796515 -3.604901779 0.3979536684
-0.890227723 4.775826144 2.55028993
-2.412636093 -2.878760571 -0.8356544128
-0.8253137154 0.5854080503 -0.08588770642
2.66886616 4.110012467 3.550948331
-3.235881311 -3.372847944 -0.8487933329
3.115739564 4.19209528 2.344331327
-3.574000787 -2.578282587 -1.159550841
-2.212344795 3.658316752 2.856349967
-4.379541501 4.371683592 -0.7268379629
1.411530242 -3.519097361 1.990232021
-2.949382198 -3.282979999 3.30190795
3.179449762 -2.064980799 1.453855782
2.493276759 -1.336341857 4.227147761
-1.472020857 -2.466226785 3.003368405
-0.5341015998 4.862969884 2.3835576
-0.5927886505 -2.463853584 -0.2641395046
-1.325060102 -1.623097094 3.516722181
-4.163855541 0.7679844623 2.640737498
-3.960779697 4.002784653 2.365394995
2.475483347 -0.479579789 3.915959676
-1.347888556 4.399163473 -0.4625172881
2.142779728 4.669126496 0.896090995
-4.436002007 -2.977225886 2.884708261
2.245984818 -1.329763787 0.5508804768
1.671740016 2.344436541 3.906143986
-0.5483512575 4.025696398 1.019220043
-1.591284238 -3.688520589 0.311108422
2.683915033 -2.207940375 3.224676428
0.2831599709 4.38028752 -0.2583709474
-0.993722845 -2.731189083 -0.4547711774
3.331278554 0.6919684217 0.7473849586
-0.2718840357 -3.467494052 3.725843901
0.02144279275 -3.186256844 -0.2059308944
-3.173458166 -0.4329754383 2.990518559
1.971780029 -0.4227070285 4.24941924
2.178463301 0.06693565436 4.25055417
3.315173619 -1.716138466 1.230955629
-4.492217857 -2.324431611 -0.2282320952
-3.253094073 -1.665230834 -0.8048260182
1.940361863 -2.526072709 4.410723599
-3.26445479 -1.1318535 3.015701128
-1.920777313 -3.326098927 2.894202364
-0.6873110193 4.629088863 1.167330928
3.315963091 0.4652675192 0.2610860463
2.681368279 0.8051030233 3.793729362
0.7729528026 2.159180297 3.716673663
-1.369911545 -0.4794490031 -0.7915148174
-2.715173487 1.418595885 -1.266474216
-2.91132597 -3.259816444 -0.9284948354
-2.741801811 -3.515536317 2.101083904
-4.150444765 -1.932209925 2.793330073
2.645456425 -2.922388033 2.343920597
-4.06663765 2.950383424 2.294592089
-3.604075541 -3.55268087 1.467515041
-3.977696483 4.857734105 0.9023604838
-4.43631598 4.605691202 0.462858621
-5.072351961 -2.027516508 1.96878516
-5.074847211 0.4724189765 2.395071677
3.15101301 1.335069657 1.676156391
-4.360839784 -0.1850184416 -0.9047174522
-2.964391589 -3.444441868 2.979014367
-4.296431833 4.869138579 1.742012386
2.739356322 -1.824395467 2.992497184
-0.7246616465 3.303157765 -0.9652802806
1.358817374 4.684851441 2.686783042
3.219054523 3.064664984 0.7367310173
-4.6158602 1.072372184 0.1580011523
-3.799914804 -2.227265505 3.001335801
1.427345262 -0.2889469468 -0.1268456398
-4.522286339 1.528174606 -0.2686010435
-0.6866762853 -0.8387452752 -0.6073314603
-0.2192565219 0.7327641769 -0.0435271937
-4.933567254 3.163090535 2.219125333
-3.998772177 0.2621609812 2.701515308
1.21236591 2.636094808 3.60899983
-0.3686984959 -3.598384108 0.4061880248
0.3985356892 -1.759681948 3.95990167
-1.569610359 2.166258432 3.120981874
0.748413879 -0.1437708043 -0.2800001521
-2.328376433 1.026149482 -1.175057437
-4.529920281 4.771386438 1.783006442
1.997636737 4.77862343 2.104639613
2.309308039 0.2165364527 0.04374625613
-3.819990526 4.758321581 0.8940021175
-3.575310895 2.314612981 -1.602931069
-1.843111667 4.881951215 2.171038047
2.197697669 3.332519544 -0.2766920438
3.076668205 3.620216946 2.476719463
2.669331222 2.533131821 3.519757322
2.059110472 4.199762827 -0.2007346466
-0.7879738088 4.806288895 1.717638066
-1.812253544 2.413763981 -1.180440256
-0.8867210737 0.6091650908 -0.7466883608
-1.654655295 -2.913627052 3.127601635
0.391424472 2.757537674 3.577272789
-4.086698216 2.113951075 2.507296073
2.717304712 1.497228472 0.02948421115
0.01120235371 4.630629 -0.2656640178
-1.484853249 -2.442153171 3.206954959
3.018347527 1.076752977 2.077504366
-5.00188146 3.571123555 2.088570311
0.7300256087 4.600880632 1.890188466
-1.566356468 -3.604660577 1.430728512
-1.552650216 1.046227167 3.10606698
-0.5564458441 -1.317015929 3.694322424
-1.634191725 -2.676825587 -0.6716370126
-0.02272973435 -3.553744371 2.754531053
-1.47802573 -1.564851667 3.03982444
-1.176413784 2.099504534 3.001889355
-1.542933969 -2.749874911 3.163750348
-1.078356436 4.626253051 2.705973438
-3.129908432 1.580732312 -0.8203212562
0.9186022659 3.305402208 -0.5908719474
-1.198827863 -0.1878492763 -0.7664033143
-4.880383591 -3.083092915 2.782338249
-3.943924793 -0.229111324 2.748699662
-3.757468269 -3.48075637 2.023564346
-0.3985565064 2.269653143 3.424494023
0.4628006689 -3.433380077 4.12114972
-0.8394386013 -3.492271839 1.520246312
-3.85104225 -0.9235399885 2.844978083
3.205155759 2.668001778 0.8144598845
-1.898500193 -0.1438609426 3.264322479
-3.109683014 -0.2619106831 -0.2838542944
2.227398649 -3.726891972 0.8897946275
-2.820880341 -3.477976374 2.460201831
0.3441743312 4.690288356 3.394313104
1.954292148 4.85744374 3.104777057
0.2574574216 -3.575631008 2.427558426
2.741085558 4.592264287 1.657151709
-1.100559154 -2.003100951 -0.03264128754
1.896469416 -3.699520345 1.292231962
-1.32585394 -0.7670564899 3.089337832
-3.389914338 -3.587172251 0.9879320595
0.8082539182 4.141819506 3.53369034
-0.2720096308 -1.880531334 -0.2915132465
1.557285142 -3.378279995 0.1942145041
1.887896072 3.761849634 3.829096942
0.8744247435 2.267627182 3.735989926
-2.605964702 4.830544103 2.390617729
-0.7977398656 4.642457442 -0.666299698
-0.8879060805 0.1938119557 -0.739477149
2.482791989 4.604355096 1.410528642
-1.788975952 0.6499825463 3.211300884
1.799140939 4.535319779 0.7371143209
-1.352710046 0.9289018643 2.680583595
-4.568577612 -1.716993534 2.751199238
2.080490009 -1.394403528 0.1125220011
1.093062644 4.142390768 3.600416995
-3.21797779 1.252960844 -0.7291812838
-0.293618248 4.459575092 1.661953064
2.737573394 -3.603070202 0.8895976417
3.378380289 4.298375681 0.8291506046
-0.3190696374 -3.167558373 -0.1769518671
-2.496345394 4.89842312 1.115046238
3.275212929 -1.594225194 1.257174068
2.542034661 -2.758554896 4.119276721
1.117949477 3.191776195 -0.5098089595
-4.313763288 -3.160859092 0.09444864203
2.403845605 -3.457265448 2.623204207
0.872397148 -3.638081447 0.04444527426
-4.993635776 3.25563623 1.846795227
-0.8582224712 2.821908637 3.277235753
2.496707849 -1.355104394 3.934662076
-3.431076493 4.509738955 -0.5946310393
1.014589856 -1.714853346 4.107120907
0.6685526707 3.907238609 -0.6794951667
-1.248774975 0.7595346072 3.30824807
-4.272500992 -3.444499935 2.843491754
3.034236824 1.197129513 2.575829502
-0.7576034852 -1.830601669 3.702509105
-3.517411695 1.846943864 2.701641042
-1.435788563 -1.079154595 2.996730215
-1.78510973 -0.7163126711 -0.8786739309
0.7269133803 0.7911253767 -0.02234058576
-0.6342290312 0.1667856866 3.553718199
1.726258116 4.42865329 0.378500287
3.130623165 2.569228984 0.2373108808
-2.882461581 -3.605244379 -0.884398595
-1.163754446 -3.448417098 3.620164189
3.079008557 4.436799388 1.886190039
-0.8156329676 4.88292704 2.771099605
0.8033358587 4.168800567 -0.5104407542
-2.191142079 -0.05005175042 3.182439567
1.189941684 3.295272626 3.54085883
-4.20064676 2.539316775 -1.21016369
-3.128739376 -1.679580206 -0.8591523262
-5.086702145 -2.251601403 2.204128855
2.291571413 -3.562442593 1.802972464
-4.964427747 4.255764938 1.959162094
-2.417009538 3.071191878 2.862570946
2.923530094 -0.2205445588 2.986032395
-3.618245695 3.736576234 -0.8582029058
1.945046416 3.26708988 3.896379967
2.375826003 4.780669799 2.309577972
3.071488489 -1.634271082 0.3979176971
-4.947501258 3.649990646 1.638250881
1.398647665 2.346494106 -0.3695228993
