# .PCD v0.7 - Point Cloud Data file format
VERSION 0.7
FIELDS x y z
SIZE 4 4 4
TYPE F F F
COUNT 1 1 1
WIDTH 1279
HEIGHT 1
VIEWPOINT 0 0 0 1 0 0 0
POINTS 1279
DATA ascii
-2.250991762 -2.73903655 3.938281299
2.901487392 4.823095893 0.9171122105
4.221678175 4.99471619 1.235746888
-3.733032247 -0.353932678 3.931436419
2.100765743 3.169875893 -0.5104017153
0.04713573835 -0.4821972672 4.793140893
0.314462751 -2.298334335 4.967935857
-0.8783388059 -3.174371329 2.148852882
0.3926376587 2.149819781 0.8805532942
0.4537176829 4.515022711 -0.5633202364
-2.245491 0.4006272708 0.74340935
-2.808010684 -3.017570522 2.753979735
3.832139482 1.083492691 0.2951335715
4.42140847 4.261973573 3.12951607
4.236748192 4.748056309 3.064524724
3.417880942 4.761771078 0.5623051073
1.530015011 -2.980024161 3.535154813
-1.102475025 -2.726345084 4.210251268
-2.232120424 5.025911604 1.046608794
3.855723958 1.165773583 3.929563406
1.382239851 1.448964205 -0.03787985721
-3.594286548 0.9678721306 4.338252194
0.1087972813 -0.005376626987 0.4769685928
-0.5156970144 4.76797054 -0.2534743663
-3.526732772 -2.47302995 4.915762544
-0.7105855358 -1.396499911 1.459480095
-2.791534142 5.851622248 3.728613376
-3.049526273 0.3897712877 5.051211276
-0.9034502433 -0.7133530333 0.7848044546
0.01074827368 0.9155014738 0.7500462059
3.837828667 4.958155786 3.071297981
-1.466533559 -2.879445393 1.358087852
1.555462935 -2.774480369 4.480891042
3.848919341 -2.018906474 2.050851041
0.483387732 2.179497917 3.913612138
4.283929211 -1.425535061 3.930619114
2.874740604 -0.4855916412 4.273535064
1.856722906 4.311183436 -0.4650479169
-0.6792581191 0.005710102807 0.6149330981
3.837686295 3.233743997 0.0237561312
2.882368258 5.027321127 1.93338082
-3.715598878 -0.4017152097 4.140454085
4.354647361 1.760539977 3.010182639
-3.99748191 1.88826269 0.7754409656
2.526948145 -2.508422921 0.7130943745
-1.930652041 -2.752625761 4.018235501
1.125923851 0.04373959185 4.577133213
3.504100311 0.5014909846 4.10012105
-1.205874714 5.379649622 2.701258771
-0.5622978659 1.028837743 4.553144345
-1.415494262 -1.130493034 0.9302592501
0.06396208809 1.149729387 4.164561523
-3.949385623 -2.102415605 2.59358201
-2.953224257 -2.563114249 4.636316855
0.0158987708 -1.191368793 4.838673579
-3.429928324 5.466706657 2.818989256
2.137038779 -3.039791663 2.812100653
2.964708629 -1.32945486 0.5571046952
-1.322990792 -1.124660296 0.9346152955
0.7663049303 4.760139512 3.557391804
-3.729665819 2.056624258 2.770105745
-3.783120278 4.219125976 0.6289075272
3.971461093 2.179464587 0.7450477863
-2.53806968 3.077823031 4.387313675
-3.618866814 4.28241433 1.005316285
0.9752538346 0.7538830945 0.4697497962
3.091487576 5.226477109 2.735802013
-3.923994087 -0.820636151 2.83938891
3.271241116 4.64615159 0.08481327314
-0.5663078304 -1.393682041 1.932797594
0.3803799571 3.293223903 3.365769877
-1.787697672 2.19545465 0.2329824825
0.2643636561 5.50033483 3.20656313
3.282064183 3.393506705 -0.7451354506
2.789433813 -2.275391705 4.821009418
-0.238844587 3.169962963 4.051972383
0.1874845149 2.533179328 4.088978696
2.613082886 0.2926034705 0.04760898797
-1.35273568 3.907816935 4.041207882
-2.330843944 -2.711957615 1.434542173
-3.454284198 5.591525611 2.554263204
3.932651115 1.060107806 0.81123364
-1.021094083 5.342396676 3.68366046
-3.558533067 5.152542878 2.470302549
-2.645432915 -2.687054587 2.342332013
3.989099773 2.911020123 3.508007479
-3.927164916 -2.053584942 2.789127525
-1.374277361 4.654510623 0.1994383301
0.05034225646 -1.914188464 4.540581178
-2.058361241 4.995620054 0.8566709149
4.153425059 -0.5162457149 2.08239243
2.772397134 4.351832657 -0.8310069447
3.647488487 -2.509764271 2.684593764
-1.425053041 5.367069353 2.438674647
2.855080571 3.902792844 3.414161646
0.2598756028 -0.9343472814 4.460937011
-3.823657986 2.242454949 1.899702818
-2.262740728 -0.179233469 5.09457105
1.482576318 -0.6213494046 0.4191870805
-2.530689432 0.1734053316 5.018102491
0.1912780789 4.960433287 0.4357868326
-1.381239741 -0.07396017604 4.926093025
2.386772693 3.18529563 3.668582339
-3.588261999 3.267678103 3.300225349
3.35605519 -0.276502058 0.08169097922
0.08729946684 3.111527521 -0.03945410361
-0.04984893845 5.417224389 2.325873414
4.100354195 -1.702531839 3.580401964
-3.981838147 -1.937112776 2.35288363
-3.494619619 4.999810469 3.090534819
4.230021019 0.4177407576 2.582696834
4.341315583 0.0288866101 3.820038714
-0.7431151059 -2.847734669 2.204733939
-3.444081473 5.614637821 2.651224292
-2.908768552 -2.356592649 5.388911388
-3.108975758 4.832892858 0.3715846618
0.8606595042 -3.280776546 1.487625697
-3.365175396 5.607307579 3.398322062
3.952940201 -3.069289436 3.51494759
-3.237250413 3.432582156 4.422203513
-1.025159898 1.533255605 4.517982641
-2.773832384 -3.142268119 2.064832263
1.738254366 -3.354253324 1.477620171
-1.132030673 4.471898409 3.857876916
-1.586169614 -2.661394186 4.370782825
2.004668533 -0.5751844355 4.587534562
3.340947702 1.392041523 -0.2710032577
1.26697957 -1.627922823 4.916818158
-1.370628065 -2.489725785 5.228807587
4.04868245 -1.314915705 3.198017728
-3.797593129 -1.627338254 4.11250848
-0.700742295 2.296921357 4.288640203
0.09413568231 2.858369882 -0.1612165828
2.90238247 3.910128565 -0.7907486793
-2.771910904 -0.7596383415 1.837667821
4.135770738 -0.1808933393 2.099559416
3.311499361 0.1063955472 1.839218542
-1.345864769 -2.756984637 4.040089554
3.920135391 1.219551739 0.5805501072
3.323527654 4.785936263 0.5583375237
0.4335175558 4.862226005 0.003885133349
3.169822664 5.005294668 2.964262171
-3.418038158 1.49682894 4.846875203
1.597698589 4.813799911 0.2778736125
-3.316814618 4.934647484 3.903866759
-3.983716461 -1.172581324 2.068606168
3.879278974 1.358807872 0.361027791
-3.144191843 -2.535926508 4.667213814
0.3729666225 -1.416029886 4.743791145
1.027670938 3.553518049 3.788281026
3.662343373 -2.16289282 0.8517488457
-2.899050189 -2.89767459 2.820223797
1.567519988 1.732722842 -0.1195285739
-2.775427705 -1.630991352 5.460879732
-3.672793035 -2.541882857 4.629561711
-1.690446236 -0.7552404048 5.138945801
3.341677009 1.102884168 3.985307455
3.993903512 3.28642283 0.5113832811
3.978463918 3.262861205 0.1934896024
0.5078320748 3.093672692 -0.2602060178
-3.716368092 -1.73003948 4.937834221
-0.4904593782 1.747009518 0.6281889784
-3.810689728 -1.239950783 3.934277014
3.410427654 -3.157745782 2.557052807
4.02231456 0.6314502744 1.620918528
-2.30011799 -2.744749294 2.0067639
1.659660213 -1.83425812 4.895146869
4.174858139 0.6074342476 2.018443693
-1.661468798 5.350216505 2.462373923
3.829835245 -2.061154251 1.328328528
0.4833724408 -2.894795794 3.222442344
-3.703469592 4.245048878 1.650902087
3.501209953 3.781316637 -0.8174385231
-1.345667101 0.6943721727 4.762519352
0.07044221047 -0.5077880753 4.26572893
3.104825019 3.124483168 3.423139485
-2.780868584 -0.7973067727 5.300857623
4.059830698 3.627086036 1.03974935
2.72508924 -3.247455654 1.852622382
-2.193121635 -3.112971831 1.932397163
2.91668099 0.9778777151 4.073461012
-3.515053417 -2.054301963 1.475263608
3.936615359 -1.352562908 2.092228547
-2.641597101 4.068807006 4.164005178
3.55837628 -2.591535408 1.855823998
-1.056434406 1.396042758 0.3286166855
-1.600380808 2.794332815 0.1009014084
2.772442901 4.440092918 -0.6322754881
4.317163248 4.416003277 1.166499465
-2.128185192 1.373772481 0.4841887965
2.894066106 -0.1532898835 1.020884366
4.434259397 -0.7671238775 3.18439051
0.5018358728 4.704622206 -0.3499335459
-0.7227254031 4.846117723 3.74538233
-0.794127442 -3.047304349 2.88388806
-3.752158311 -1.038433269 4.170633305
3.688952189 -1.273981585 4.488819802
0.8471600778 -3.135424639 2.182784405
-2.419876466 5.109253814 1.268346122
-1.93217781 5.036640993 1.113938053
1.294396085 -1.185691894 4.806819004
3.822769874 0.2732802512 0.4810261746
1.876845068 -1.180093316 4.731010194
-0.730763103 1.621589942 4.462437348
-3.053563047 5.744196384 3.297660541
-1.326899169 2.124329467 0.2012658057
3.427704689 -2.480558639 0.9555704465
-2.463857496 -2.705678424 1.447930581
-3.95002687 -1.578316082 2.473150755
-0.2696058119 -2.787910174 3.600307737
0.4747795887 5.105413609 1.092551969
-1.927038552 4.785341484 0.4522420292
1.135836976 1.007248848 0.6805856291
4.312705974 1.252518398 2.984945294
4.272882684 -0.7433672446 2.900576958
-3.591896542 2.457611574 3.687830372
0.4642073707 2.154847627 3.84999919
4.022368319 -1.730145235 2.863204753
2.340985104 -2.219788776 0.6765057923
1.133482015 0.9943981494 0.5926539359
-1.27215609 0.3366409378 0.5943889791
-0.8646636301 -3.02076472 3.008535861
-0.3182063352 -1.697304026 1.319291129
4.41857948 4.109199014 3.158897155
-1.201992921 5.087180882 1.400276137
-0.6477311929 4.612912411 -0.3733306715
1.000892488 -2.851970226 3.500990165
-0.8201479792 5.376791089 2.550178313
-0.9348265736 0.9610430454 4.642565398
0.2762417868 4.991105541 3.54902803
-0.1304109262 -1.31655673 0.8985916125
2.097313898 5.181841269 2.502771764
3.204049688 -1.093242893 1.501724243
-2.996181998 -3.081144614 2.06928165
-0.8723939143 -0.107122282 4.863708888
-0.03657738668 5.219953817 3.558170605
1.591192714 -3.289259174 1.705591378
-2.302810702 1.231488144 4.755967296
0.2519496624 -1.847724553 4.761366074
3.866018564 -0.006427754369 4.1820726
0.7291543782 3.69698497 3.799228904
4.537635417 4.461858853 2.982127127
2.561655035 -2.696986474 4.521581023
-1.251332868 5.728816484 3.019659374
3.487283288 -0.1010045526 4.245286511
-3.578510494 4.480344201 2.705955624
-0.6903315318 -1.010384354 2.74149344
-0.7362997688 -2.909190957 2.156360174
-0.01827357741 1.668504193 4.345222195
-3.160020789 3.421108059 0.7860006724
-3.580987821 2.558660012 3.653756003
1.893475855 -3.133793519 2.466477718
2.97550732 4.731223113 3.071877731
-3.374571987 0.6838006522 1.608709368
0.7381681214 -1.982199581 0.8328641543
3.835006258 0.04554316548 0.6450360496
0.8834541869 2.560898601 -0.2243959307
3.928537989 5.201241349 2.048813757
3.383845756 -2.820395917 0.8302785289
-3.488169462 2.549219813 4.280107703
-1.389826213 -0.5782217969 5.046926638
-0.2790232048 -2.793675825 3.683404288
2.886828239 -0.6928968629 2.085339787
3.977553524 -1.09088069 4.391299001
-2.108115275 5.154516137 3.805741076
3.905759122 1.967757151 1.135880593
0.2688306068 0.9041305322 0.4184165438
0.4709678465 2.128269802 0.6285216858
1.875867547 -0.2430132635 0.2729657563
2.059134431 4.473545657 3.401115806
-2.456955425 1.086304295 1.060163523
1.492425658 3.152210389 3.797300731
2.084739525 -3.133406209 2.4465705
3.565746097 -0.6866590255 4.38682947
-3.865786569 4.167617047 0.6496370072
-3.578170777 -0.5952094533 4.905493356
0.1683216921 2.853033243 3.912196165
-0.1262698366 4.782765219 -0.4230755867
2.353173782 5.461076836 2.637207226
-0.7574063113 -3.188423219 2.021233209
-2.662492333 -0.4740001102 1.630802416
-0.4062461289 -2.810447512 2.193237862
-3.494111998 -1.524012397 5.561213736
3.473475254 2.840088739 3.586747586
-3.21871356 5.47322438 2.029229549
3.224614884 -2.269185088 0.5563401113
3.64181824 -1.663861699 0.3674542346
1.499353009 -0.5110559294 0.403049545
-2.687092806 -0.7458533622 1.031992329
3.386522687 -3.255728353 1.049316218
0.5519113622 -1.87952179 0.8587669283
3.674742455 3.592263923 -0.6431815379
1.582291145 4.86404167 0.8999068066
-1.743382101 -2.458548063 1.308301395
0.4407230221 0.3410237425 4.447205548
-3.344143708 -1.086323209 1.482750251
-2.49605763 -1.573629537 5.390575194
-2.57126277 -0.07334135917 2.015701966
4.23676887 1.79872079 1.840253696
-2.543385152 -2.418135028 1.385789459
-0.3443262985 -1.608773379 1.57390268
-3.446556208 -0.5438680085 5.333047594
-0.9353784308 4.99068912 0.3860711834
1.319267339 5.11117653 1.473148253
-2.816654303 4.837028283 1.080757156
-3.542026691 -1.886518671 5.592215419
0.4261660233 5.498335374 2.941709665
-2.269072024 3.042761311 0.1240846539
-3.396543818 3.087688398 4.237458988
-1.857743675 5.652558747 3.168667956
1.081427916 -3.086579393 2.540664172
-3.79778289 1.539096479 1.480449236
4.282569401 3.384140634 3.351430042
-3.811485178 -1.826286249 3.967472363
3.03188714 4.199268484 3.200983987
-0.7311413583 -2.155068361 2.05958757
2.815538116 1.424803286 3.855440038
0.07372586188 5.282961981 1.835098642
-2.604150007 0.2411952494 1.575670538
4.024057766 0.7606679304 1.782795557
-2.285960078 1.41277967 4.729100798
-3.310298699 -1.932551438 5.6185576
-2.338529582 -0.5505329004 1.215348475
-1.112304372 4.941752207 0.712555503
-3.432118006 5.384553379 3.489298067
-0.1985548186 -2.754646035 4.116671657
2.81505737 4.501992809 -0.4889362965
1.171460666 -1.042923246 0.5796358042
-2.462929578 0.2093886016 5.005286092
1.985090747 4.388577963 -0.3042879538
-2.588264715 0.5985152995 1.578399738
-2.446821882 3.956322446 4.136510434
-3.470064357 0.7767437546 4.852729177
-1.714440744 -3.145990197 1.998468584
3.904624146 0.3748480505 4.071434481
4.204772941 1.083032004 1.917536013
3.435086094 1.274857176 -0.2782586588
-2.091443303 5.446665407 2.702047642
0.214677295 -2.025766649 4.706298006
-3.618913274 3.849238079 2.655752219
-0.9467124298 5.521467577 3.12104429
1.188750451 5.422189562 2.579529502
-2.48824056 -1.056837095 1.753836275
1.178262382 1.005663007 0.2542564035
-3.625330189 2.661673055 3.21721659
-0.6026818539 3.021705583 -0.09527800002
-1.658595583 -3.152711915 1.450109476
0.909571717 -0.376272872 0.4580096689
3.540829949 3.543782773 -0.6340348482
-1.792191364 5.407626607 3.775851032
4.212561762 2.478108555 2.537490832
-2.357671969 -2.783702725 3.7778475
1.14195927 -2.570517381 5.149935909
-1.280047361 -3.15837313 2.15561215
3.518559195 0.8699572943 4.033086587
-0.01048698488 1.882754678 0.3143521423
-3.706287449 -0.4728345353 4.362488852
-0.332357668 2.139779133 0.06059108971
-3.721964801 2.156425377 2.836957562
-1.738097426 4.766686013 0.4150204789
-3.212192008 -2.546229418 2.604098023
-3.169832532 2.718788892 4.554780498
-2.523610767 1.083394742 1.754538916
-3.748494351 2.472295688 2.454961273
3.647689099 1.699965449 -0.1104025616
-3.070791577 2.456371285 4.587806484
0.5042789639 -1.078332731 4.916325546
4.30664457 0.113230882 3.463238198
0.2023522475 1.000957574 4.111956641
3.722257662 0.4638639219 0.04322331441
0.09637234451 -2.534694092 4.810567774
4.174505779 3.61504563 0.3971437508
4.221991889 2.327360686 2.660766875
-1.528658915 4.513730823 3.941657958
2.653382063 5.228793633 3.182191389
3.012662329 5.250923493 2.599403105
-1.82450498 4.523851052 3.966941436
-1.863487054 5.284827043 2.171734847
-3.865347241 3.455510577 0.8455752431
-3.699390432 -0.9872554209 4.482738576
3.755755441 5.140830645 3.01487009
3.43791519 -3.356503147 1.985102602
0.2794646168 4.466070302 3.113313849
-2.409164926 4.557851726 -0.0543647451
0.4640883301 1.454452022 4.191468362
0.3856630915 3.530976512 3.512990176
-3.901583025 2.567984855 1.01741172
-1.777022364 -0.4482628599 5.076675022
-2.418493279 0.6831908912 0.8249222881
3.331813723 4.60248851 -0.01321838861
4.265395666 2.306617945 3.577810801
-3.347753614 3.913053292 4.049663426
-3.202144597 4.800083361 1.650308035
0.1884943489 1.391318177 3.785050159
0.2454773977 -1.743902781 4.716928396
2.65647666 2.266309172 -0.3975264783
3.859343552 0.3003155762 0.6880153482
3.018938243 0.3460974376 4.072785951
-2.108628278 1.508387212 4.683322339
-2.639617362 4.165269516 4.165814348
-0.2170612232 0.653004185 4.632724362
-3.209789313 -0.7507035766 1.138663257
2.558202726 -2.762943254 4.453148677
-1.867804374 3.329415368 4.240209032
-0.7792586463 0.1586838996 4.816544732
-3.42342682 -0.1188555376 1.858770648
0.5709506 4.516566579 -0.5881009916
3.517206617 5.044230726 1.20741288
-3.752999971 -1.882371311 4.700677963
-0.5963868309 -0.7294512739 4.984706911
0.3072522507 1.183857688 4.057525885
-0.8578279209 5.569181454 3.259888708
-1.604312186 5.210125218 1.970496232
0.292777288 1.815780768 0.9888957896
4.39380906 0.3870464947 3.996346296
-3.733543954 3.544650444 0.2384603656
4.128557315 4.214677748 0.7027876635
4.087603062 -0.8981450131 2.989026198
0.01808382248 0.3623834022 4.326810564
3.880118779 -1.691373056 1.660019709
-3.961891911 1.678119466 1.021501809
-3.549263431 4.296677494 3.162104628
2.826358514 -2.854799016 4.240690469
4.32818749 1.461270612 3.047990559
0.5367910551 3.368458825 3.747055946
-1.057487942 -2.603480398 1.23746695
-0.4100374777 -0.3974247495 0.6413072524
1.958634264 -2.993710732 3.043053847
0.9650801152 4.07284248 3.683592844
-1.808131598 -1.821370672 5.389760914
-3.172875257 4.124738543 0.561588405
2.117091122 4.282848204 3.448143471
-1.499395273 -0.9694167755 5.155264968
3.402101947 -3.09093224 3.371996453
0.07327162747 -1.315801681 0.780391908
4.052712582 1.766420592 0.4179955636
-3.510562704 -0.09837270891 4.891586345
4.350645116 4.42674105 1.538725334
-1.382088083 -0.3285378026 0.7711442195
-2.954939126 -0.9123134559 1.827229345
1.058933546 5.36042959 2.299125274
-3.806834102 2.884134811 1.553706346
-3.523233442 4.332768394 0.05661664715
-2.288527696 4.382986962 4.017464301
-2.548976465 -2.705758643 4.106610742
3.653124922 1.97249374 3.760521213
-0.475561736 -2.538999325 5.238121621
-3.116616674 0.7992997023 4.978533498
-0.5053763907 -1.05982706 0.8197422104
2.186156271 -0.5103667676 4.531623309
-1.432122518 0.9423595553 0.4835515325
3.971075082 0.9901229126 0.9208148024
-1.538398201 0.9707492814 4.690760503
1.181675169 0.2745692494 0.4379904233
-2.600752757 1.944627351 1.033913454
-2.616028276 4.615095968 4.060044619
3.621381329 2.768744234 -0.2517928823
-3.542184332 2.955673419 3.694142505
1.295777221 2.977335613 -0.3237363971
2.015841882 -2.883216921 0.8684018488
-3.763847156 -2.436983941 4.792423576
4.252741817 2.348402572 2.948837739
2.928998857 4.391241786 -0.6252714745
-1.633418665 3.927423116 4.065769477
2.033987236 -2.786666429 0.8488735885
-0.2519531201 -2.655044377 4.609807999
-0.5787915768 1.160384709 0.4775045632
1.521702 -2.823613686 4.291777598
-2.139590754 -3.118759725 2.274892636
3.418007601 -3.436676845 1.800870663
0.02999049751 -0.06735352132 4.713563621
4.230021765 3.074867365 2.69754044
3.004539404 -0.2091671384 4.153129944
0.3456442317 0.9221595997 0.4005777071
4.288234843 1.536259168 2.528313238
-0.9174521384 -3.082680693 2.595952659
-2.177035195 -2.809441273 2.784617545
1.058927206 1.466848361 0.9122132895
-3.587713721 5.385719275 1.894975601
4.421732877 4.654169007 1.807881057
3.191247535 -0.292017244 0.2017934698
-1.535084226 5.74160088 2.546393494
2.016165798 4.895781758 1.231916224
0.1071440479 -2.149882885 1.09248439
-1.670030704 -3.113120113 2.221705755
-0.5814951931 1.074412876 0.4063002979
-0.4031685245 -1.519177148 1.951869827
1.632641467 4.012597509 3.581463865
-3.72692048 -2.667552644 1.634994481
-0.5121325708 5.035567861 3.678567184
0.751916469 4.412417734 -0.5892344777
4.559677433 -1.091241663 3.683308671
2.885529089 -0.2393724661 1.252540107
0.2240807313 -1.531574127 4.596082606
0.396194829 -1.140482598 4.807784033
-3.571736344 4.561296936 2.668786185
1.843601088 4.301486883 3.480940308
-2.664980181 -1.812952371 5.517370556
-4.030691527 -2.016617965 2.077792544
3.865128054 0.7648279328 0.3618393041
-0.9604112226 5.125753298 1.785647266
-2.655674337 -3.100181139 2.328479098
-3.211694791 -2.498149758 4.957468369
-0.1639533373 -3.130116395 2.002085136
4.034024107 3.975821366 0.1353579497
-0.5916502396 -2.895647631 3.148335687
1.92833915 -3.35654798 1.37663786
3.052119059 1.449204478 3.804597165
3.512860257 3.618863981 3.392984802
0.328511119 -3.308556559 1.477247099
-3.803667344 -0.1135445067 3.257178687
0.7697045392 4.697079711 -0.407548286
-0.2984903488 5.644390711 3.490479367
1.708833377 -3.152011903 0.9584929428
0.7586767596 -2.019272337 5.080429289
3.01559252 0.6564684894 3.966599199
0.9840035121 2.500419615 4.010519604
1.105214039 -0.7379652357 4.725825765
2.52945237 3.392582617 3.628502741
-3.607003364 -2.460684022 5.013269443
3.90241126 2.746822663 0.2147464506
-0.6263134197 -3.020775244 2.440000454
0.8044366323 3.447417105 3.748856865
-2.763506198 0.8848815318 0.8091572664
4.226381693 0.7467009414 3.988620818
2.640669923 4.756579859 0.7765365784
-3.786494995 2.316761293 2.196279762
-3.716745345 1.974136994 2.894694145
-0.603282129 -2.574791468 4.846339181
-0.5771635299 -2.579794894 5.05107072
-1.912876532 5.692281636 3.555474201
3.285361718 -0.1158513835 0.9475943867
-2.450483805 5.004503151 0.6154580922
-3.95963755 -0.5528913531 2.364216644
0.3409159201 -2.471253054 1.009904144
0.2356074829 5.307939724 3.522472524
3.014206621 4.222195713 -0.8724090595
0.7404011993 -2.775548167 4.291209459
-2.356981322 -0.9547733085 5.079491891
3.807431458 -2.269974895 1.4882629
3.434221713 5.354974182 2.808407141
0.8461050584 -2.981425412 2.972534523
-1.512758696 4.75149907 3.89302317
4.07796494 3.034355848 1.601385985
-2.940605244 5.392345877 1.794331744
-2.969217416 3.075661117 0.2216116109
-3.965983972 -1.830474114 2.433579235
2.002672535 -2.680344264 4.911481954
0.5106547835 2.315929233 4.098490896
-2.501770274 5.58904883 3.434219432
-0.5197954208 -1.490452407 5.154975073
3.510301135 -0.07933885222 1.014570268
3.386939122 -3.388216773 1.07148268
2.868881545 1.855565487 3.746058366
4.126819391 1.921537905 3.691312643
-0.8304183098 -1.257062276 1.549377966
-3.917014271 -0.2740911081 2.493161644
3.997550901 -1.20766428 2.453489063
-0.9741071195 5.425731457 1.917154136
1.968540898 -3.160201884 2.245938252
2.373368144 5.384126019 3.163400081
4.234029448 -1.053957899 4.1450783
-2.607253663 1.390689084 4.648712887
2.212204363 -3.513070226 1.061896015
2.754834718 -3.205557533 2.24649622
0.2390794758 -2.875122322 1.128363986
3.28297328 5.111827962 1.534510096
2.452178601 -1.453109075 0.4826238585
-2.979262917 -0.6424595393 5.290230437
4.239910656 -2.390071911 4.147916736
1.240204298 0.6221764139 4.401366117
2.197690051 -3.091181858 2.604958864
1.889644022 2.731029861 3.851366142
-1.808159786 2.269476473 4.447110694
2.927518711 -1.250252082 0.8521370768
4.064610432 -0.8913927199 4.348021524
-3.673799876 4.809181096 1.81865711
1.500382271 -2.666688433 4.893000511
-3.053040744 4.761246295 1.236534025
1.541667267 1.093216117 4.251798526
-1.276116983 3.19849646 4.157543132
-0.1944192198 5.134662327 3.597104013
1.953608977 1.61328665 -0.1369860137
3.255006033 -0.9708645603 1.889056724
-1.075651555 -2.852441648 3.718513202
-3.703286818 -0.5854933429 4.276914692
-3.500852975 4.611813584 0.1508053005
4.370407196 1.367100226 3.167420543
-3.394053051 4.279629589 1.056983299
1.687851764 -0.1239961343 0.2906406514
4.187812769 -0.1851514792 4.177031005
-3.40785756 3.586666335 0.3579151221
-2.339925929 -0.1718017511 4.909207216
-2.540233801 1.041592146 1.590364738
1.059347309 2.195766234 -0.09855795589
4.037159153 1.394588781 1.448330694
-2.60868865 -0.8324122778 2.066284037
4.417138189 1.821889606 3.386808541
-2.540324639 -2.506602311 1.423980336
2.9111495 0.7728385882 -0.07657973968
-3.508729252 3.391616404 3.760466418
0.4793220831 1.342894603 4.33855014
-2.931097471 2.462804118 1.481375489
-3.578892557 3.027180228 0.3279927257
-2.421416488 1.7338905 4.685736644
-1.603547241 -2.701279395 4.267783781
0.8500062556 2.272368139 0.5462146305
-2.396522786 2.394214309 0.2853505732
2.156133945 5.204093726 2.391222396
0.4106346439 0.9042120436 4.108776717
2.012820495 5.530167388 2.375883266
-2.946494978 5.720954645 3.192756919
-2.962718965 4.821934663 0.8042529878
-3.400022662 2.80597231 4.404572901
4.031247835 -2.805002087 4.357893049
-3.823197637 -0.930997899 3.234635798
3.668729061 5.417247876 2.957832269
3.888696239 4.617548156 0.03046368596
-0.8960222036 -0.8016306676 5.026644744
4.103684601 3.050080936 1.784469881
3.032665291 1.644440854 -0.3108406666
1.96166217 -3.147402732 2.35002468
-0.6896007971 -3.022168637 2.572968716
2.719238377 4.033827129 3.406716481
2.922923942 -2.598081166 4.892672351
-2.277009353 0.178436411 1.134458615
1.518587502 -2.610420957 0.8832441319
1.425518145 1.682737494 0.5066269214
2.928324407 -1.012413737 1.724967867
4.029332185 -2.193050954 3.059992939
4.415777304 1.629278009 3.442435208
-0.8054080614 -1.319283493 0.9223945574
2.495025379 -0.09077529459 0.1602190028
4.062971133 3.881757933 0.1662292492
1.773219062 -0.6229038057 0.3827195598
-0.5184630974 -2.885036269 3.227860415
-0.2827264232 5.183720489 3.613508686
0.4317096711 4.200194224 1.298490397
2.802941228 -1.256241133 0.8787879329
-3.717384286 1.87877038 2.907590829
2.807068227 -2.332179696 4.701918668
0.2437687637 -2.892874871 3.676540491
-2.518396747 -0.5424037747 1.424550465
4.03813125 1.83571812 1.046836498
2.28034656 -0.3247982849 4.483873118
0.1418123346 2.689923829 4.097585767
-3.792809158 -2.278074302 4.47846168
1.394770285 0.4969351777 0.5639046461
0.2247527751 -2.807653412 3.525373814
-0.5950885708 5.535821209 2.789553056
1.66288292 1.956847835 -0.199018738
1.406715644 -0.2123996547 0.3595548903
0.2657865053 -2.62765701 4.75881122
3.32394474 -2.939270876 0.7648156747
-2.004301173 -1.823201171 5.419907098
0.8636911441 4.64315401 -0.213342414
2.437183157 -1.940716297 0.5741559197
-0.1503930969 4.377564839 -0.4627621583
4.20556798 3.050735172 2.613626304
2.720024275 5.368063303 2.900324301
-2.057772569 0.8684874852 0.5873620929
3.951656842 3.24609092 0.3155981094
-3.714883279 4.466198118 1.693758241
2.787877515 4.66014544 0.1541039307
0.4084995052 -0.4363375157 4.511899237
1.011128988 5.341760527 2.908121792
-3.2863492 5.365978577 1.528288478
0.6486405416 0.955450442 0.1773678627
4.019128388 2.135837353 1.078479619
-2.563629169 5.090026429 1.391395684
1.331755897 -3.3478758 1.336601069
4.302862476 1.179917648 2.83111367
-3.81274033 -2.522478449 2.665908975
-2.166275321 3.558855671 0.01176769251
0.2379395077 4.735192189 3.601801441
-0.281617865 5.575286674 2.957932472
-2.690747152 -1.693617369 5.494859832
0.05962302748 -0.2619963227 4.417791749
3.30526114 -3.092881046 3.290572755
-0.4531794525 4.300376474 -0.3821177033
-3.216562581 5.600005069 2.704122259
3.577990325 -0.9213337341 2.152398227
3.924335611 -0.8404106121 2.271975241
3.980229934 2.447164982 0.9015894609
-2.121473013 -3.04446086 2.463991687
3.881317794 -1.623151517 2.137513684
3.955897707 0.6427838246 1.120147447
-0.3891620361 -2.694014291 1.84461382
-2.440792808 -2.429703364 5.467344356
-1.988284115 3.312308526 0.03977285937
0.78560922 1.907251651 4.199711874
0.08575841804 -0.02313316978 4.132515606
-2.90690468 -1.575170715 5.490475158
3.027724723 -0.05661833558 1.288899024
2.294776242 -3.276435505 1.705851446
-2.901145261 4.861248029 1.597097349
-2.238002495 -2.429634113 1.359104924
-4.034534534 -2.508709171 2.610530661
-3.646926548 3.939926263 2.441703078
0.1207047393 1.547489334 4.219101354
-2.572974084 -0.938336781 5.130562937
-2.279476087 1.163635834 1.013532604
-3.789901555 2.978154539 1.830993649
1.751407154 -2.325641282 4.990080934
-3.081467078 4.401951969 0.3757806375
0.8966122008 -3.224130593 1.779680148
2.294147921 2.71305716 3.820535863
-0.6676149923 5.561451131 2.995297239
-3.429027912 4.138289098 3.91458015
3.024572135 4.2931205 3.16611625
3.899040577 4.09301257 -0.5961176757
3.428439961 4.772060868 0.4679164801
1.393659108 2.093748394 4.060065167
-3.795928663 -0.8633805258 3.524733044
3.511852163 -2.450409371 1.562395468
2.9710786 -3.214489191 2.223261208
-2.642301781 3.895305884 4.232075696
1.710063905 -0.4554893677 4.597304967
2.849976425 4.637182876 3.262800783
-3.566512404 -0.8821844639 5.055392038
-3.687282176 1.395095155 3.51576647
-3.226579249 3.621057167 0.3896104939
-3.52657778 5.506591219 2.156583312
4.07753796 -1.244498993 3.289173186
-0.7358257855 -2.982140296 3.177408672
-1.154790324 -2.497244556 1.234680646
2.003208516 -0.5247843603 0.3386767282
-0.08900811399 -0.5621767251 4.886351452
-1.164662689 5.479886539 2.038661975
-3.974765283 -0.2690671619 1.873523188
-3.810783221 1.786855837 2.108142863
-3.156582167 -2.193623985 3.631544883
3.249693849 -1.790632472 0.448836301
3.065501217 1.483794956 3.775931567
-0.8170147153 -1.676671508 5.229649673
-3.206102491 1.283409823 4.875356227
3.940202226 1.264771377 3.880637973
2.846747253 1.68598571 3.772063659
3.543102084 4.777325244 3.142511564
4.32823237 4.777111571 0.9697528903
3.921264683 -1.3390671 0.9362168428
0.01558366529 0.1653094629 4.434570128
-3.806637911 3.464067 1.41258406
2.14748013 1.506735244 -0.1418531748
-1.328127775 -2.778321313 3.943344093
-2.608835609 -0.4584148848 2.107079052
0.7149577077 -0.4520539968 0.4980640449
-3.081124768 5.471142529 3.92323
1.015553483 3.781053673 -0.496429416
-2.060490557 0.2968070662 0.7172346687
3.722066532 -1.603923832 0.6243341053
4.251086414 0.1228528252 2.951893109
-3.469706703 4.37664714 3.557564825
0.7964300128 4.145670776 1.154708549
0.2534123337 -1.544236964 4.688492124
-3.441618399 1.367043909 4.727050586
2.003296522 -0.1901379657 4.488560438
-0.8947371709 5.024657011 0.5659737422
1.270667275 0.7918094985 0.2001166575
-1.830699308 1.976670431 0.3065864666
2.991432546 -1.158692216 4.393704707
-2.533528617 -0.5552570949 1.316757756
-1.836667817 5.212313936 1.991342955
-3.761847974 -1.585543577 4.314606729
1.144719084 3.954268081 3.67638123
3.555688935 -1.457109351 4.530454464
3.070380277 -3.208403924 2.307094472
-0.9400757691 -1.941467464 1.087377685
-2.851127173 4.997632952 0.838639117
3.981301828 0.5450506484 1.334809066
0.1871866433 -0.4228106504 0.5727467135
3.690905478 -0.0239760349 4.207166579
2.532309602 -2.175077737 4.860781873
-2.417240181 -1.153289899 1.659593272
0.7027575518 4.958314366 0.4708453692
3.444568847 1.177207106 3.992391513
2.688185948 -0.5119104139 4.466434072
-1.650766652 -1.967689698 1.185960728
4.208303096 0.5748104459 2.343671056
2.261152951 1.647305639 4.034602573
-3.547242003 2.794164079 3.815657121
-3.875762248 1.67703759 1.526864934
3.42874542 -3.146293414 1.235128355
3.444667373 -3.193923946 1.440353222
3.959690874 4.342078937 -0.4679009329
1.864789883 2.513201505 -0.324972244
-3.762390411 4.108233501 1.454084339
1.646062398 5.469240954 2.732794937
4.376413644 2.865676061 3.452755534
-2.232231465 5.208225028 1.638125583
1.448849797 -1.485983667 0.6273117063
0.6490071949 5.054236696 0.8664817765
-3.600152429 -2.711259795 1.891320674
0.08322478877 0.1283681557 4.343788571
4.347674343 4.822064818 1.252746128
-2.543049941 3.685624806 4.262682629
0.3202123763 1.071034722 3.882207348
-0.1453929371 0.2293371889 4.701351791
-0.178649104 -2.93370778 2.905748709
-0.5286130613 -1.245793794 1.218325587
1.599157042 -0.3691713118 4.602234117
-0.2708680055 3.364287104 4.010523489
-3.824223487 3.704474241 1.047486933
-0.5064565491 1.401794319 1.061063226
3.962482701 3.098835477 0.3338454658
-3.276094114 3.584310886 1.063346436
0.1021036911 -2.456515999 4.850441756
-1.599145871 -0.7204784607 0.886743051
-1.872355237 -3.290229677 1.558311254
4.264682981 2.134474782 1.560886262
-3.610358023 -1.246054617 5.030596128
2.373122185 -1.375568992 4.701452824
-0.9626557172 5.095801101 0.7924153155
3.272955903 5.167014272 2.969164534
-3.819470589 4.169993464 0.8600824343
0.209056621 4.025404608 3.425442753
4.16962925 0.9512859269 1.859620405
-0.4880600144 -1.134582627 1.867797577
-4.070394812 -2.275410529 1.80859517
0.2704764615 4.372198877 3.119773362
-3.790318384 0.8813603089 2.636512462
-3.614236506 1.493440025 4.009373875
2.795107628 -0.8789426664 1.93782794
-3.641213235 1.648256251 3.759267254
-1.068449418 3.498335346 4.086433381
-2.825768972 -2.766639837 3.319411084
-3.554778979 3.060165751 3.667901169
-2.241692735 5.508761665 2.80667548
3.996637729 -2.779011294 2.909788239
1.512459704 3.866460147 3.627463033
-1.016372001 1.245833309 4.587469081
3.241627132 -0.04066065919 1.352157235
-1.177954432 2.864641302 0.03783844108
4.138446822 -2.154552262 3.350601148
0.4936171514 2.681899784 3.802430179
-1.048809928 -2.816076511 3.892538673
-2.992168426 5.890510439 3.776773254
3.193199134 -0.1135631911 0.9717037656
1.285948478 -1.047024314 4.784975787
2.228122897 1.093872178 -0.09076160976
-3.905144518 -0.4919983863 2.643656758
-3.834131943 2.843960595 1.351107568
4.216877761 -2.233460267 3.798263535
1.230591102 4.567760436 -0.03177313842
4.111358136 0.2670259978 4.091809515
-2.718709778 5.471786495 2.167109987
-2.044617713 4.039662846 4.100723853
4.314061657 4.659167876 0.9937202365
-1.723540857 -2.55007228 1.320806719
-1.161401509 5.695250738 2.670762717
2.344477448 4.370588748 3.401405254
1.266364366 2.029191953 0.2381296168
-3.521456865 3.354334541 1.199245733
-0.6024567871 1.538694401 0.7993055515
-0.6665837732 3.319685839 -0.1521112636
-3.022511013 -2.633689377 1.827156632
2.973764418 2.541951674 -0.4936936863
-3.625465382 -0.5647665956 4.792080547
-1.734868384 5.291216625 1.766449633
0.428228796 -0.500619344 4.759254244
0.8035151066 3.065222753 -0.2907618739
2.318266902 5.237304814 2.573006996
0.5337141665 -2.900615224 1.073991043
3.930247643 -1.266020013 2.472712082
-1.019463351 5.009960624 0.3989315996
4.225971933 -1.732423363 3.588604774
-2.624843799 1.476955807 1.679229277
2.800609289 -1.28914311 0.7845627072
4.148258103 -1.946502933 3.229127733
-3.846396233 -0.7525834211 3.209467833
0.1142163692 4.826096886 -0.1333546235
3.744021998 1.732427898 0.07756153357
-0.6370595607 0.9382341391 4.619761279
0.2546106862 -0.940618629 4.554549457
-0.1198404185 0.6868820228 0.3687103217
1.286711524 1.874396201 0.1425924063
-2.599520309 1.984910881 0.4487755856
-3.287470078 1.757346381 4.79146977
0.3515022109 -1.050635101 4.582269514
-0.8493603453 5.24708242 1.436086491
4.162346834 0.1890394458 3.655340275
4.00037573 4.071096826 3.253195394
0.5812599164 4.728425564 1.605087886
-2.467561194 0.6480722438 1.297493587
2.62278485 1.078574389 -0.1199344938
2.321531545 0.6691320674 4.245641516
3.228264029 -2.5068334 0.6425556891
1.844631415 4.280102743 -0.5642151477
0.6459061673 0.7779656463 0.2300702919
-2.841949717 -2.515898554 4.819863987
-0.403466862 0.778491358 0.5901291994
-3.793126363 -0.080081814 3.367739759
2.159368314 4.353440365 -0.4292879753
4.225811222 3.89145342 2.421991308
0.1183889838 -0.1020747898 4.278975781
-2.056616984 4.669440798 0.2939524667
3.149811509 4.543363276 -0.1609191914
-3.043988958 4.688772135 0.1965389386
-3.349928552 3.995892043 4.125902754
3.983678096 -1.423785109 2.095673061
-3.785321031 -1.221172159 3.510943121
-3.593346096 3.630207733 2.897738155
-0.5305671854 -2.782026037 3.536015633
-3.672753721 4.813609814 1.122875482
0.3240657346 1.812732686 3.654006823
2.807476367 -1.853584516 4.593570499
-2.722407093 1.448980328 4.766419811
4.045104138 -2.838835271 4.477758945
-2.981346337 4.57264927 -0.1017146895
4.192620906 0.03771838949 2.563672897
0.008220120047 -0.6728622718 4.828317942
-3.980779483 -0.3659187604 2.093993388
2.064866897 -1.066707513 4.6776718
-2.137456061 5.125414059 1.139438754
0.6223463779 0.2658641202 4.601485341
-3.26599754 4.830934867 1.081563798
4.193988805 -1.179387471 3.875317699
4.130672753 2.35188338 2.257053965
2.904366315 4.457144443 -0.4056235634
0.264887569 1.684804452 1.007034999
-3.094414786 4.791460836 0.7734886124
3.63564884 -1.995490093 2.462721197
3.14039101 4.291893887 -0.7415516738
-3.571440279 4.445649822 0.4351513164
3.232005925 0.713535441 4.118539879
3.233980569 -1.88737401 0.4506261449
0.9154111332 1.308057183 0.6541083369
1.894705896 2.678845754 -0.378429889
-3.740127496 3.407963818 1.223101508
-0.1106467746 2.127499691 0.04673423814
-2.517128947 -1.689873986 5.456244615
3.158184352 -2.574739555 0.6710301331
1.228358227 1.140345402 0.06873188381
0.438669939 3.637753485 -0.3806650172
1.777555041 -1.141476028 4.728986281
2.434065059 -3.024983313 3.505091307
2.190087793 -2.688696284 4.561119708
-1.447614291 0.09962132281 4.917919035
0.566178357 -1.234569086 0.6936889466
-2.374389026 -0.8120396577 1.254051347
-2.175734018 3.026224505 0.1070604839
2.955842298 4.881748226 1.213726426
4.010160524 3.508393143 0.3555974838
3.761522065 -1.542295718 0.6904918091
-0.393899823 -2.111365341 1.704049236
4.199737361 2.897710293 2.21267587
-3.179959071 4.679194361 0.2156407267
-0.547168214 1.403643363 0.8376194912
-3.786788778 -0.9804981778 3.963003772
1.689411084 5.340953286 2.75271575
2.758384754 5.362843522 2.992158626
-3.474898108 -2.19174085 3.593048424
-3.122314922 4.342734043 0.4991228555
1.007013282 -3.37165153 1.112500656
3.661561296 1.776744936 -0.4153900283
0.1763856821 -1.86785108 0.975094172
-1.114669832 5.341516806 2.515984599
0.7175159103 -3.00098072 2.803926944
4.122659402 -1.33713803 3.597798195
1.190382378 -0.8872768151 0.5314429142
-2.782737628 -2.761129476 1.662663405
1.16581168 2.05429323 0.7881231342
4.109374008 -2.80022652 3.236782527
-3.915319176 -0.1617360169 2.359464741
2.833109892 -2.230322019 4.675509628
2.887438656 3.495643332 -0.6906474815
-2.019045796 1.850046592 0.3453184391
3.06419314 -2.965425832 3.819784154
-3.977475459 -1.874652181 2.244743503
-1.786537434 3.201723767 0.00997504869
4.325010652 -1.747598184 4.495243735
3.38461143 -0.2614568215 0.2390991215
1.675481989 -2.896931802 3.898991929
0.3003046621 4.731979248 -0.3502143368
1.683511299 2.160147996 4.002644974
-1.309009962 -1.022143731 0.9166436403
-2.356097735 5.547355458 3.248412783
-1.104750918 -1.279430217 5.181948685
-0.526933409 1.548961099 1.094351882
-3.619805775 -1.792769854 5.154105362
-2.683413601 -1.481259313 5.393404928
-3.553549229 1.3748952 4.357367508
0.6083856766 5.035847136 3.360453486
3.277337689 2.746083313 3.632631638
-3.9159507 1.829643916 0.6391205779
1.56948968 2.414418007 -0.282281088
-3.085983861 5.303456586 1.326232175
4.00345586 0.6106068002 1.53012803
3.542448356 0.5932429295 -0.1228164548
-3.379500543 5.70319003 3.010194312
-3.721039668 -1.966904796 1.455731942
4.228138082 -1.695862754 4.33809387
1.4235685 5.240181771 2.495579407
-1.655092201 -2.806469871 3.780775095
-3.960992788 -0.6899344772 2.387059151
-2.585489063 5.495932893 3.857266359
2.733297682 -1.037436637 1.244830081
-1.413959462 5.098929817 1.228743264
-3.400770359 3.823861195 3.843210193
-3.481354247 -2.6556414 2.035653625
-2.378886304 0.6468349701 1.137875795
3.855159619 3.713351211 -0.5881358567
-3.101042188 4.257030646 -0.01774806871
4.21496078 4.099729464 3.082484483
4.193567102 -1.897848575 3.604085658
1.958593494 1.948142867 4.007664177
-1.514133458 4.826345288 0.5788230873
-3.743754945 0.1669764685 3.583133403
-3.856039593 0.2309057207 2.484537358
-1.766133359 -0.116531897 0.7752249706
-1.228133251 5.05133177 1.23448391
-2.008967548 -3.027355667 2.751429986
-2.661756437 -0.7927953638 1.314712857
1.131466455 5.343859231 2.926981751
-3.803020373 -1.376910041 3.440976295
0.7883255178 4.800801701 1.834730344
-3.95920993 -1.152593388 1.63176756
-1.995499398 -2.485980412 4.995478859
0.352329164 -1.602370289 4.798197275
1.834901762 -2.171761651 0.7363134072
1.739599638 -2.625070061 5.066201185
-2.266306184 -2.642385849 4.472508716
-3.91409666 0.928423683 1.89230143
-3.837750694 2.472393194 1.733348191
-0.4757027347 -2.443574823 4.771525598
2.174364822 2.580815182 -0.3823234112
2.786696337 2.687871647 3.740792519
-0.591994705 3.703911378 -0.2416481381
-2.267932454 5.515179309 3.126708058
-2.346406794 4.773320857 0.4022281839
-1.784665316 -0.6561094466 5.144926898
3.495162662 0.1941351547 4.187711464
-3.641220944 4.309551734 2.358200966
-2.024536724 -2.204687874 5.514066403
3.106194526 3.64232169 3.323253188
-2.838686981 -2.307969079 1.41479967
4.44582465 5.143341815 1.975822397
2.97793579 -1.947310118 4.582901034
4.197346485 1.59530909 1.797724952
0.3756742793 2.901259739 3.45184526
2.25301555 -2.006961163 0.6227711695
2.745686529 -1.18835941 1.084275165
1.926132817 4.188696156 -0.7122367534
3.292488571 4.687210653 0.2031422027
0.7459325368 -2.986434434 2.891252252
-0.6417780194 -2.098090642 2.124591198
-2.866562382 -2.547113222 4.718931758
-2.641559601 -0.8271981957 1.912707284
2.646865251 -1.850426143 0.5554501164
1.423834704 0.9067892616 4.336721767
-3.084965573 4.564922445 0.4655863251
-1.222044863 -1.60331483 1.037376065
-0.4956098684 2.979401093 -0.09523840958
1.956193933 4.71172175 0.1421726435
2.213397131 3.313372468 3.676535939
-0.3586085241 -2.23648664 1.50692822
-3.520155593 -2.345428657 5.574967213
-3.623367458 2.215939005 3.538124083
0.3643823142 -1.682610045 0.8222068552
1.259204887 -1.806574722 0.7319135728
-2.930651017 -1.122611325 1.607057816
-1.039919225 1.098601713 0.3912182114
-1.042466343 4.944049867 0.2012154243
-3.317598589 4.734196677 0.4641559333
-3.820023683 4.010930088 1.087853684
4.015958873 2.781395688 1.435808154
0.6550252466 -2.446959341 5.204310179
-0.3241259859 -1.93279059 1.117678935
0.4237653477 4.272772467 3.091503257
-3.542951797 -0.9523282027 4.922561476
-2.770179392 5.246464801 1.605197623
-2.205875533 1.627157401 4.668035353
-3.813840879 0.6203719991 2.798318961
0.9117427256 3.431807556 -0.4122481074
1.214068374 2.383123955 0.6789891452
2.562674287 2.110418872 3.884456897
0.2710515762 -1.795002469 0.8846640397
-3.523054562 2.482498477 4.122465975
-0.3590716007 -3.073183547 1.509989296
-2.608230192 -2.820168999 1.847412886
-0.3579770283 5.445228848 3.171430911
-3.867070516 -0.6266884737 3.178896508
3.077547769 -0.9104144459 2.108384973
-0.7732281974 -3.156147433 1.482279381
1.722957515 5.185084442 2.234392885
-2.641862206 0.5656878687 4.94977899
-1.390876884 2.393325567 0.1673538382
2.582664898 4.359166292 -0.3582123054
3.99112327 -1.800831394 2.475169246
0.3706052728 3.768685585 3.219186284
3.639741619 1.587445134 3.863759363
0.2058226711 3.578813096 3.321022193
3.355241418 -1.641990004 4.601639892
-2.906847012 -1.601861845 1.279511938
-0.8880832198 -0.397265377 4.934819642
1.000675932 3.436219414 -0.4194313957
0.2858509452 -1.683055064 0.8526078999
-0.3458793249 -2.398838122 1.332606581
2.270625697 1.818675958 3.989797658
3.694235496 1.959161816 0.2384173276
3.372407222 -2.957803014 3.881481478
-1.787521363 5.492266619 3.732787819
0.1513502195 -0.03263720523 4.155729487
3.802476124 -2.634657916 1.98840863
4.065662701 3.261899239 1.319472172
0.5479320645 -2.536894161 5.212797492
3.39054256 5.151025045 2.629255886
-0.7638430696 -3.161463359 1.767816046
4.18409092 1.194950851 3.63789753
3.24810382 2.072201771 3.806696831
2.909422014 -2.231815708 0.5878743351
3.969746965 4.532728156 -0.6596768886
4.071997071 3.389001376 3.377088192
-0.107773586 5.280179388 3.536444111
2.723913408 -2.135061603 0.5888314497
0.1811230159 -0.1579711014 4.391171144
2.078285883 -3.006626687 3.029771604
0.9066506875 4.989418717 0.6286655762
3.729183565 0.6575080391 0.01084684324
-1.325593148 5.176482254 3.74918487
0.586900483 4.029227775 1.056544317
3.460103238 -3.074503082 2.839236305
-3.309855415 0.9917612626 4.953039038
-2.80150549 4.418140378 4.108904068
4.073959319 3.723034082 0.3103846065
2.8109731 -1.765911097 4.527177121
-0.341542805 -2.506317252 5.32909324
3.316452714 -2.733834807 4.858544336
1.493039455 -2.877933934 3.996844366
-1.622677052 1.388827541 4.63634761
2.281790115 5.032474234 1.778938347
-2.359657803 3.977677437 4.14157984
2.341365274 2.014968512 -0.3105349884
-3.814579279 2.373803988 1.984988625
4.204640838 2.752078806 2.571899197
-0.9370796119 1.2512739 4.570535527
-1.296773016 2.53103431 4.328965445
0.2537999664 1.409654219 3.941812593
1.902284518 0.2499985492 0.1527988424
0.1491665991 0.5652754314 4.007240832
2.337276159 -3.34110927 1.918714627
2.296865469 5.252018631 2.460945118
-3.172012355 -2.475927362 3.605300954
0.2934439996 5.158192065 1.302962204
-3.846384094 0.8192106538 2.414791358
-1.253156819 5.474244146 3.190127581
-3.456837039 -2.366710765 3.320573875
0.5177900221 2.063273599 0.1357464777
-0.4298973835 1.957053079 0.122092734
-0.4513767478 0.4314357931 4.689968973
-2.176550956 3.716618345 4.019832685
-0.3625039438 -1.855111997 1.821065682
-3.604444086 5.115860401 0.5370145794
-0.1079769715 2.401744597 -0.03284866481
-2.208721732 -3.194010843 1.875137196
1.536493148 -2.753955114 0.9066726354
-2.489570896 0.2202762497 4.854424049
3.145070571 5.25833558 2.127737304
-3.692299104 0.6488023555 3.794208962
-1.56195369 -2.07041248 1.189537378
-0.7368498247 -2.115723302 1.337465594
1.564082012 1.98605656 -0.1816781141
4.230652366 -1.797926432 4.526742743
-2.261249249 5.173154552 1.526467393
-2.634464974 -2.16186013 5.374377625
-1.614727762 4.269890921 4.000385938
-2.878216 -1.854065345 5.540907747
4.154155254 -2.709481118 3.608926641
-2.073549082 5.2040606 1.523830924
1.487310985 4.796270517 0.3200991544
-0.5628981881 5.452996376 3.051786491
2.631724671 -3.008798068 3.574208034
-3.695684185 1.274332883 3.457169274
4.073883226 3.021278339 1.494779022
-3.839652375 -2.529616956 4.336843132
-3.159888392 5.568193083 3.906953742
2.004164351 -0.3006915263 4.530324523
-3.881699576 -1.770163072 3.137745994
-3.668124469 4.256053193 2.157700755
-3.811380748 2.504864525 1.847281628
-0.7889496315 -0.02445901512 4.826682585
-0.9416737014 5.205006802 1.455569899
3.0057981 2.443971383 3.622860722
-2.346208574 -0.09217033454 0.9011569521
0.1348778852 3.093122961 0.05023060609
-3.712006782 4.338853437 1.60797067
1.493379681 -2.914416595 3.303321698
-3.590054548 2.221076314 0.4813140787
0.02298994862 -1.826305056 4.994360705
1.351049251 1.65467199 4.158809531
2.464375755 -0.7456070452 0.3255868047
1.358507893 4.614732541 3.497596428
-3.3169049 0.8110766283 4.993926605
-3.364711328 5.352679272 1.544041864
-2.51369948 1.054029317 0.7568329735
-3.032560762 3.563230983 1.080782826
-3.787206699 -2.093621984 4.432974487
-3.571209036 -2.213549193 5.669472196
3.99956121 2.201079646 0.9368605777
3.935743087 1.039424046 0.7317000161
-2.285395615 -3.004169844 2.866538054
3.980182077 -0.9426611607 1.881850213
4.183379307 0.4542973858 3.541867839
2.088739551 -0.1611874934 0.2248289452
-2.435493631 -2.721701654 3.98747362
-3.974434078 -1.817790333 2.126230194
-3.829218515 3.835216772 1.233024281
0.904004921 2.201191812 -0.0822808569
-3.82185262 -1.710527326 3.505505191
-2.333478729 -2.043276526 1.273442631
-3.487788721 0.4648211139 4.83041811
2.785834474 2.873823192 3.679873267
3.829820034 -1.671820871 1.037707045
1.334196001 5.333809613 2.944797311
-0.3467432733 -1.454033535 1.765687014
-2.674007506 2.658924225 4.501386671
-3.640512845 2.502117567 3.371039741
-3.779474351 2.656788085 1.91627721
4.032360039 -0.8855945671 2.262550564
0.291579447 3.091897334 -0.226249885
-3.248147699 5.520253066 3.951536085
-3.176462712 -0.7737422197 5.350714538
-3.520808575 0.08170572867 4.725373993
-0.02716934027 1.441749041 1.1115206
0.9695846739 4.513883262 -0.6598507575
4.136592641 -1.768791951 3.595613348
4.127462703 -2.335405137 3.132073052
0.2571101598 -1.12386117 4.502761672
2.017608304 -2.684626265 0.8194132035
0.7854698864 4.901433412 0.26661638
-3.628273015 3.365124443 2.742819824
3.990520305 4.779967216 0.7971865645
2.736159681 1.481702325 -0.232455775
1.504710337 4.762556453 0.3978950313
1.353436141 2.544019829 -0.2700015673
0.5271146002 3.344971381 3.649260933
-1.040423495 -3.110576966 2.127158938
3.116262053 4.981110038 0.9669791203
2.737186146 4.580564046 -0.8574808363
1.985527051 2.642654751 3.874776507
3.816585207 0.4787449938 4.08055056
-3.831997454 3.960607737 0.8834545547
3.678409938 -2.583179689 1.955655141
0.07948093196 0.1708451126 4.536667787
-3.75468603 0.323652535 3.57633554
-0.3366215573 1.052102956 1.185837354
0.07839016683 4.797622895 -0.1965282831
3.616803582 3.550128181 -0.5247195596
3.36199153 4.671900393 0.1795162059
-3.01399576 -2.406377371 3.178196607
-3.271221072 5.021376071 -0.03100325439
-0.1318132434 5.057117544 3.613665487
-2.058036854 5.530809105 3.283138146
-3.719579431 2.453359383 2.67245818
-1.944096726 3.445041214 4.224239448
4.107346217 -0.3933360149 2.071386401
1.92107585 -3.085951627 2.633593437
0.1535858095 3.880485397 3.844950888
0.3479979341 -1.149268124 0.7108048348
4.106640527 -0.8221944773 3.284861716
4.298991885 4.573329346 1.022252332
0.1741576647 1.936474211 0.1924953986
-2.120645848 -2.417901303 5.527548846
-0.531065583 4.930613115 3.707248244
-3.873122025 2.963646134 1.024771931
-0.8318398691 -3.14726294 2.320393671
-1.354991957 -2.970754347 3.064434969
-2.248918559 -2.404162949 5.525846885
1.196605408 2.012597794 4.099660132
-0.5682612792 1.742640714 1.127641592
2.322898731 0.08214674752 4.381152249
1.402387386 -3.42045483 1.078203308
-2.293226237 2.013603943 4.584850386
-3.640998183 3.176685147 2.798986962
-0.9958716009 2.021244893 4.403290104
-0.3862958096 1.203327501 1.204578178
3.553810068 -1.016415659 1.842730323
3.933666229 -1.258779819 2.570414475
0.5179484586 3.822921226 3.458485224
