# .PCD v0.7 - Point Cloud Data file format
VERSION 0.7
FIELDS x y z
SIZE 4 4 4
TYPE F F F
COUNT 1 1 1
WIDTH 1275
HEIGHT 1
VIEWPOINT 0 0 0 1 0 0 0
POINTS 1275
DATA ascii
0.5354290744 2.425880462 2.442025467
-0.07507165575 4.46623948 4.336498276
1.634787589 3.019039175 2.211478751
1.181811582 1.084991061 1.616335857
-3.655651336 -0.1622100708 -0.7625940635
-2.561008253 0.4778994295 3.710453114
2.687176424 1.638485331 2.750238155
2.425346714 3.879465743 5.255973399
-2.77046539 -1.492848326 0.3124063881
-2.782116155 0.08643602966 3.818752135
-2.595284941 -1.0755391 4.067756254
-0.7809335526 1.167869794 0.783185677
1.090326644 -0.4463321649 5.365212426
-3.210202181 -2.58040794 2.572687506
-0.2809816745 2.243493919 5.756999957
1.494953805 2.14468216 6.520358852
-4.228520037 3.631062773 0.2462110832
2.823295307 2.679369398 4.879264226
-2.518508226 6.459314612 1.211464715
-3.596669522 1.962328274 0.7837664651
-2.762481139 -0.3124048568 3.971338866
-3.366321261 6.262420125 4.170576014
-5.682415869 2.372069463 2.581321202
0.1782107753 -3.506666784 2.279187119
-5.159774644 -0.6496653713 2.98977436
-2.87072016 4.487529989 0.4564315851
-1.347129067 2.74112837 0.7888277926
-5.346089436 3.325471792 3.16453066
-1.351583402 -2.780341521 1.71959314
-2.601718919 -0.7751475127 0.6202497504
0.1269178599 1.109039655 5.700149897
2.564583813 2.562771007 5.855030939
1.422519592 -0.359815363 2.545815574
-4.21845781 2.70394802 4.053465261
0.1984634083 3.938556539 2.57116476
-5.759068674 0.3753457909 0.4047247624
-0.8444271717 -3.668500396 3.90232413
0.07918579935 -3.200680877 1.18848131
1.615452445 -2.418413541 1.459356303
-0.07014556355 -3.637942794 2.857978982
-5.005241202 -1.7970466 2.123066455
2.876837683 2.103136535 3.339928947
-1.051700528 1.928147808 1.165426473
2.8740069 3.726504513 4.889559291
-2.954677449 6.326417428 2.085715951
1.068903602 -3.042120631 1.329521455
0.9649914676 -2.330489365 3.324806807
-2.538185582 3.083351769 0.3533622311
-1.084493707 4.918091212 1.327577768
-1.580295363 5.869945881 3.230939519
-1.2492018 5.765461674 3.132046196
0.6397664723 1.592629866 1.605852293
0.03206014217 4.73414224 5.208915588
1.83441269 -0.4150980763 3.964473619
-2.124471382 0.1150033433 0.2301481443
-4.268215582 -1.275298812 -0.1019223363
1.289612456 -2.529509559 2.291205291
-5.86350921 1.994226983 2.88578713
-3.226958554 -1.084627547 -0.7873390366
-3.389536561 1.41479212 -0.06678366769
-2.012083456 4.495249856 5.411491315
0.6296893775 -3.140644264 2.425416082
-2.136765433 0.5905793932 4.598502691
-1.38766474 5.446432503 4.577949841
-3.059358338 -1.863575765 0.6613287948
-3.371594081 6.35729953 3.947653415
1.122617212 -0.49157666 3.28741668
-0.4149869844 1.25914089 5.508992616
-5.146355035 2.664747098 1.463838707
-4.145870477 2.872037573 4.12181036
-1.419747157 1.943898878 0.6215482867
-0.5857694264 -3.357673191 4.541724541
-0.4590585793 -4.130191605 4.228969662
0.4134459335 1.286842846 5.881617349
2.210380325 0.5937650252 3.896629505
-0.5646247 -3.757432784 3.352233091
0.4585940512 -1.114532227 2.870444611
-3.783052869 6.573802717 2.231920861
-5.911556637 -0.8817659747 2.603283065
-3.013361798 -0.01034705327 3.926593369
-1.531215353 1.029538524 0.4155374168
-4.803143469 0.3663996528 3.365139543
0.8915044381 -1.968612825 4.696547967
-5.169640871 0.6582578729 3.224132094
-3.18192218 -1.852141245 3.681295951
-3.128296224 2.15195503 0.5540162681
1.386869845 -2.128435217 2.438216663
-0.1439733255 -0.7415765752 0.6974532297
-2.03573867 -0.1129302488 -0.01163821212
-1.849280552 5.398704024 4.46414289
-3.027221456 4.23720065 0.3369723916
-2.830284362 -2.637921491 2.399723188
-0.4113793269 -1.984895036 4.878984609
1.334688538 -0.8730378875 4.757406613
-2.948110969 6.929739047 1.892969896
0.5347104517 5.232994161 3.290535621
2.122865482 0.7037489567 4.628769107
-3.78339893 -1.27775324 -0.5617460015
-1.128632736 5.790628932 3.190442806
0.5017441081 3.63611218 6.36528382
-1.947749596 4.184385582 0.808804904
-5.567319739 2.19882135 2.060648081
1.256576702 -0.1463642136 1.437855487
-2.78452254 -0.4792692245 3.83446411
-0.05985024268 1.946754167 1.296750689
2.661385173 4.108065356 3.949042118
-4.617529077 3.73507844 1.445404919
-2.269579102 -0.3918196518 4.376689426
-2.500987116 0.6338106484 4.422365858
0.1049425597 -0.31534357 0.867960314
-0.4441184431 4.544175066 5.667026746
-4.465460331 -1.106529632 -0.3881279441
1.082903749 1.402901023 1.647827383
-4.667209657 0.2956700313 -1.187335328
0.5196933537 -3.374021326 1.675976
-3.571560615 6.113675774 1.692598468
0.952938825 4.961625711 2.547958806
1.099342009 -1.465891857 4.538481117
-3.311149176 -2.011223625 3.313677559
-5.232019403 1.078937781 3.252927517
1.917968459 3.444532817 6.967534375
-0.2252896075 2.541389643 2.257316751
-1.095980043 -0.9296903637 0.2212723547
-3.058174733 1.959750742 4.441928796
-5.449878549 2.651536727 3.001511705
-3.212212899 -2.356360238 1.942714468
-0.9682511907 -1.616094236 4.690145775
-0.8953466382 0.1188409195 5.070529265
-0.7752965061 2.991180678 1.130910834
0.8884167167 -2.163812544 3.971987991
1.619805604 4.160167349 2.433543028
-4.351371098 0.9218173564 -0.9312459143
-2.431622959 2.610563345 4.854291813
-0.7207449056 -3.02865846 1.850616923
2.88878339 4.333287003 3.526854236
1.488039644 -0.1647147391 5.178186692
-1.29713414 -1.885731723 4.504129223
2.058532317 1.532665786 5.543561739
-0.5459239019 -3.215682975 2.124788006
0.3359186265 -3.502761083 2.787614459
0.8632690834 -1.214279258 2.140522256
-3.235997534 -2.263232119 1.782354338
-4.474241954 -0.7329365219 3.294018707
-5.246282425 1.949717637 3.442883437
-6.608255972 -0.6465844322 1.27254092
-3.293205556 -0.6416481012 3.784829971
-5.253690389 0.1601665447 -1.415335055
-0.1865883694 -3.63464196 4.66197811
0.3236168322 2.164581007 2.442464346
-2.453312569 -2.718098342 2.225926462
-2.686293463 -1.119235914 0.6147492274
-2.56209514 6.019472291 1.369704253
1.970545827 1.754894756 5.879711071
-5.177479414 0.9368250551 -0.4545555767
2.257486262 2.952828421 6.630208504
0.4256432038 5.335236853 3.05649858
-0.9355849474 3.057552619 1.052942927
1.038966202 -1.487625885 2.846370212
-3.30059609 -2.21280983 1.725276105
-1.038804231 -0.3406686581 4.924619648
-4.156890081 5.917992293 3.062083963
-3.389253392 -1.345317861 3.123407753
-3.777721718 6.136486052 4.367744174
0.4374028162 3.66962711 1.96524257
1.017989154 -0.4915483798 2.450918626
-0.876656675 -2.278378222 0.07134640745
-1.069035246 -0.09291784387 4.955856377
2.769974486 1.124612495 3.326941725
-2.836879764 1.815056369 4.526690933
-5.522801763 2.818339794 2.749412607
-0.4187331947 -1.758206254 4.934720179
-0.8921281346 5.264589803 4.572532564
-4.559581551 -1.470526008 0.7198392891
-5.082896829 -1.140964627 0.3210857587
-2.377567981 -1.08620441 0.6767474058
-0.05715637577 -3.254164584 4.795239773
-4.74694038 3.849974739 1.942221439
-2.966672775 5.28183385 1.236766584
1.868899095 -0.0290141384 4.364922785
-3.82645784 1.027292102 -0.4656462428
-0.5982563027 2.987298567 5.751391283
0.6908626226 -2.089611604 0.8130738881
-1.923446029 3.146225771 5.036551724
-1.859753245 -1.920955119 4.232320622
-2.205951957 3.437332104 0.5600319643
-3.517517641 1.402061549 0.08179860028
-4.172061358 -0.1165823993 3.526620975
0.9257266162 -1.02277877 1.635616676
-2.781511873 0.573500516 4.002569067
1.33195557 -0.305121473 5.435740191
-1.184992164 -2.140488452 4.515889587
-3.385533951 -2.428036548 2.306081807
-6.238391428 -0.3604064238 2.568835384
-3.278240078 6.951021644 2.026205389
0.4107351156 3.044505075 6.215596142
-1.04703376 -2.214718988 4.546126472
-2.60267243 3.583649963 0.5544550425
0.9449749376 1.588173423 1.605014422
-5.851146707 -1.398787511 1.81317227
-4.34234703 -0.8989640336 -0.1513272221
-2.981831543 2.014476713 0.3182500482
-6.253848245 0.6569173888 2.011084208
-2.874383709 0.4040948624 4.073634796
-6.572346072 -0.7820742926 2.294504561
1.698842382 -1.620377618 2.103020944
1.929352063 3.773882099 6.140802094
-1.022872464 -1.088868361 4.791487006
-2.179561904 -2.500104797 3.996272316
-3.063702871 5.503696513 5.116156245
-3.072388727 3.531186695 0.8391497033
-0.3373322163 1.757716186 5.64016766
-3.448009027 -2.661784985 3.392656227
1.859301053 -0.5693486009 3.380160582
-3.430722072 -2.200794545 3.018022507
-3.52648864 -2.384742451 2.998564335
0.4352857745 1.639713716 1.584007461
2.661253901 0.8040694819 2.760977596
-2.597774098 4.364921071 0.5396984249
-4.080585213 -1.554754241 0.5598295208
0.6150515787 1.774820271 1.509495046
2.09198293 3.351452396 6.631714147
2.747923673 4.240903429 3.401428397
-1.429050243 4.612728385 5.510273883
-3.798975902 0.6768086638 0.33930791
1.863176031 -0.2837138092 1.883765588
-2.342615477 -1.907135896 0.1953178384
-2.473873152 1.743835892 0.1165220526
-4.388377898 -1.76102052 1.407873762
-3.895305165 4.80310539 0.8611160088
-2.90775865 -2.522993441 2.166422872
-2.551309733 5.970023217 1.235465152
-6.443283602 0.1307770105 1.828744172
-2.243119932 1.147928407 4.029595751
-4.500008702 5.75644079 3.965974
-3.780802272 5.170404663 4.690265692
-1.69589943 6.163537475 1.328923329
-3.980072783 0.01600284486 -0.90429909
2.45606676 1.339868718 3.908675173
-3.104184181 2.711506702 4.57254115
-5.268698606 0.7014269633 3.177064779
-3.035354391 4.788580256 1.461006662
-2.563602359 5.649352779 4.637583382
-1.113118141 -0.08024646711 0.3921489318
-1.875686191 2.251719813 4.505375151
-3.061943968 4.365915767 4.898526882
3.24531751 3.213218335 2.982266456
1.149860774 4.641923763 4.127425002
1.762924651 0.6792814273 5.477913081
0.6990514103 3.994138061 6.039126264
-0.07038976827 -3.332407321 1.986721589
-0.3489502476 -1.323872192 0.5150174828
1.605227792 1.148782023 1.844766615
-5.239807146 -1.288668236 0.8873187774
-2.089565112 -0.01468839871 0.4593721376
2.845199762 2.203782845 4.461491627
-6.405146275 0.1354281038 2.061091977
-2.870341225 6.264448333 2.165188747
-4.595789409 -0.3460680185 -1.053359696
1.331073261 4.702147288 3.56503416
-3.069751442 -2.063774361 1.284477652
-3.840615745 5.122894943 1.169317804
2.230818613 2.742338935 6.941881308
0.2779507086 -2.947704313 4.446659855
-2.490046926 6.319591043 2.579346861
-3.510484292 6.385981466 4.005340817
0.3995484489 3.184756152 1.66513227
-0.1882965152 1.512159439 1.114939244
-4.527960835 5.564883356 4.468484046
-4.957284886 1.382840331 -0.6201615633
0.193571496 -1.519044731 0.6966944843
-0.8595292543 -3.968219327 4.288371795
-2.858945621 6.943091478 1.701287484
1.430975522 -0.6457222575 3.508479423
0.3639528737 -3.972310476 3.109629193
-0.714064211 1.969784731 1.934995165
-2.196998777 6.33733472 1.948379527
-4.178569389 -2.222938937 3.15360767
0.8116042869 -1.37239127 5.00045428
-5.556721304 1.968132775 3.317612103
2.595928815 1.390694531 2.786948805
-1.348004103 -2.928915916 2.14051955
0.1379402753 1.437541317 1.518875413
-1.145937036 4.608965965 5.335462979
0.6684804022 -3.257314839 2.108949142
-2.699327426 4.462773457 5.0812491
-2.699925036 6.629563779 1.156117847
-2.145538786 -0.2239426903 -0.1067331187
0.9504055049 4.94741454 2.433348615
-2.519615285 4.405295671 5.157313355
0.6096261456 -3.23146799 3.640885036
-3.692244754 4.93108889 4.519763594
1.024870732 3.608684506 2.046081788
0.162330199 -3.460907603 4.649155936
0.7690534971 -2.41023184 3.879184453
-4.510969619 5.18809409 2.985324404
0.6289004665 2.208968507 2.225229551
-3.650666482 6.162117848 1.898334141
1.482346679 -1.778275991 2.658214054
-0.2179337221 -1.238956171 0.5759916407
-3.980497286 -1.057998825 3.456071687
-5.345312062 -0.3651338711 2.950586086
0.6052512705 0.5843346055 1.266612471
-1.220616416 5.762559313 3.050008664
-6.393110457 0.5514433495 2.492760416
-1.084776553 6.182338131 2.508960022
0.735879699 1.961993693 6.144731883
-1.422956562 4.590037181 1.117914942
-4.83728632 -0.630857036 -0.03568454333
2.552555979 3.863720988 4.867354506
-5.311319424 3.552097641 3.131927625
2.853628098 3.086694717 5.653201919
0.5353238062 3.005931934 1.704562099
-2.034433751 -3.190773207 3.93391966
0.4331403151 -3.827443636 3.340770598
1.342191678 4.064524897 5.351776783
-4.427860501 4.471269741 1.904877856
-5.145104336 -1.835123571 2.776994634
-2.093844258 5.798387636 3.896646562
-5.309110596 0.7795910213 -0.3001470879
1.049143714 -0.4841709528 2.338960831
-1.334751193 -1.033128972 0.153976906
0.2831783656 0.3921599478 5.655016171
-5.453900427 3.427230386 3.596494874
-1.993403134 -1.920367239 -0.1715034204
0.1740327665 0.770872004 1.135735299
-3.682269126 1.792254135 0.7094234182
-6.575019641 -0.05758469564 2.180562425
3.148708252 1.312408729 2.756948709
0.7683531835 4.877058857 3.791936525
-4.786651257 -1.04995523 -0.3149880782
-2.391837338 -3.148471639 3.431471309
-2.07475772 5.357903206 5.499516109
-2.321115752 3.090256774 0.4117534237
-4.618872333 4.257718071 4.127054024
-2.174010584 -3.141197394 3.47393237
0.3161936061 5.276703623 3.329757472
0.141806085 2.857253021 6.05653835
-4.301277544 3.100215508 0.3520909651
-3.284789841 4.684253725 0.3059540665
-1.563732338 5.070520001 5.191517983
-0.4395390231 2.514975701 2.19228721
-6.442938914 0.05721908569 2.012673339
-2.839164427 0.3996387643 -0.323934263
-6.276921066 1.052493301 2.839269944
2.717605851 3.624639078 5.672120611
-1.729414696 1.451149236 4.914418995
1.346125235 -1.261618269 3.570126794
-1.141726788 4.027415638 5.274325547
1.381124888 3.020233308 6.648750608
-2.92432403 -2.324704125 3.703165039
2.790740114 4.27153092 3.275170916
-1.118856599 -2.361803058 0.3432556873
-2.427483231 3.225727691 4.967825781
-3.729099133 6.445904696 4.031703622
-1.058559286 -2.439021952 4.313192069
-5.144440749 0.226830495 3.15009064
2.430233699 2.59545651 6.245782795
0.4478548189 2.785549497 2.012869131
-3.675387779 6.142558504 4.87599493
0.8388667885 -2.656019191 3.499603303
-2.725271747 6.162531202 1.868299333
-3.748471631 -0.5159850536 -0.894588898
-1.031474769 -3.341213426 2.670765883
1.961487119 3.852218731 5.815364607
-3.327330258 3.049257731 1.130017166
2.0092416 3.717444872 6.149053609
-2.842170404 1.115959794 4.392159674
1.411509232 3.808870721 6.49805818
-3.868794091 -1.150794697 -0.685587976
-3.112656597 0.9381139774 4.228449275
2.874372752 3.163481628 2.793311581
1.242020302 5.099476935 2.724511668
1.299164974 -2.488746479 2.439050748
2.925404172 4.103786456 3.278688665
2.15113344 3.930944728 2.626477845
-0.1335205384 -3.260969615 4.762382761
-1.321525281 4.277715518 1.121465678
-5.163013273 2.405995515 1.272653604
-4.269614822 2.287563878 0.3951673067
0.9501537944 1.467324631 6.139850327
-0.5216230003 -0.6777384554 0.5469416547
-2.31771616 0.4693300043 -0.04371400587
-5.187782389 1.484809055 3.373094906
-3.848269231 5.238882319 1.301313062
-5.005146494 3.78488334 2.606117165
1.859873446 3.639938423 6.452914193
-2.649847219 7.084461868 1.076675889
-3.41343314 3.557186798 0.02480176658
1.912892432 0.2809415997 1.801670031
-0.299570186 5.03253431 4.142474649
3.609641712 3.754549325 3.452594742
0.974480697 0.9331223365 6.056779026
-1.038871677 5.411416248 1.454446752
-4.133057941 0.07394894161 -0.9612321662
0.1437148792 3.855005674 1.97678751
-3.573711669 -2.578310443 3.328732654
0.8073767363 -3.029561062 2.193423292
-4.151310263 6.450781613 3.744826339
0.6532142034 -1.612384058 5.314672818
2.415296536 0.4394625612 3.155191099
-0.9153321914 5.204923495 4.873471369
-5.21414863 -1.79175956 2.76044856
0.8978942085 -0.4481281022 5.547290666
1.002342333 4.111116983 5.655228993
0.7544218519 2.102095973 1.907656435
-0.992654658 -2.850567102 4.437143282
-5.134706647 2.506493819 1.294165835
0.5935648207 4.876493852 4.248358339
-3.955513162 4.103429054 0.05067583961
0.2696938737 -3.922570603 3.073632763
-2.67989019 6.341288742 2.146449382
0.820177076 -3.006589889 2.126641542
-0.9300104622 -2.172675493 0.05720193299
-0.8043439172 4.807942785 5.766596301
0.5720255585 -3.039750659 4.010011058
-3.424328238 -0.6818470113 -0.7771557922
1.841484594 -0.1663713598 3.878584932
-3.674774643 6.197515648 2.091878688
-1.958679876 1.25896565 0.2477317097
1.556213758 1.604488149 1.894623968
1.199140443 -2.92540509 1.203909217
0.4753038755 1.582636952 1.498166407
1.393258727 -0.749028446 4.684522906
0.01453349545 0.2871015342 0.9440421138
-2.934672347 6.091132529 1.21112185
-3.772558419 5.625101117 4.731099375
-1.627394058 3.630720379 0.8357527925
0.9377681971 -1.971520717 4.632400821
-0.9973263419 1.532084704 5.293294402
-5.025147216 0.5821701656 3.278564859
0.9427170578 -0.4421045745 2.777801681
-0.09456361442 -2.795332979 0.5058065095
-5.327289985 0.3992179357 -0.7576309468
-3.881385067 -1.292824787 3.444128052
0.5565432443 -2.737865934 0.6361433875
-2.110191614 5.782425585 3.987773901
3.405026285 3.304467084 4.143291678
-1.872809643 4.25307309 5.422944403
-2.647457409 -1.954580895 0.6049081608
-2.739640508 6.137764045 2.079653974
-1.262138297 -2.982336078 2.174846682
-2.980520594 4.048687657 0.9580156681
-3.331410199 -2.089899786 2.900193989
0.5771707654 1.977134028 1.600663501
-1.254528425 2.779920675 1.696270049
2.447744246 4.257487029 2.816430456
-3.679412019 1.301788116 0.1632454847
-2.763997492 -1.918677763 0.5715785538
0.9505250742 -1.337422471 1.083600593
-4.284748367 -1.490791647 0.5032921488
-4.14716982 6.086307507 3.220649725
-2.046705611 -3.088562189 2.900462893
-2.810882579 -0.3460383293 4.098801937
2.19327894 3.384981188 6.548587781
0.983476805 1.553782154 6.178650505
-0.9217057111 -2.53431621 0.5071301752
-3.71363833 1.214844446 3.992295662
3.133412476 3.343406952 5.261426099
1.391216192 0.4647148766 5.700126449
-6.269930484 -0.7214126565 2.460894087
-3.703870446 0.8058850745 0.1876628222
2.200529104 2.609536217 6.89165787
-5.367895173 2.220971065 1.489153346
-0.8046365888 -1.88837649 4.539783949
-0.7129612794 2.799290077 1.762403583
-0.9371420362 -0.2759480947 4.963816104
-4.21628346 -1.860543032 1.483858247
1.662979815 1.654878581 1.982475616
0.7414268196 -0.8832844054 2.48656311
-3.686718688 -2.162707049 2.996469767
-2.683678404 -1.193133937 -0.5281690814
-0.9530189713 5.236680101 4.748903836
0.9575049938 -3.15760573 1.462637942
-2.475219103 -3.010850871 3.198187667
-6.390893842 -1.152590188 2.29831122
-0.006719932042 5.480787936 2.014533087
-6.058797236 -1.493174226 2.231831313
0.6536315779 3.143224533 6.342747583
-3.464818536 -1.630004517 3.038756966
-2.682109 3.134712403 4.827507755
-0.2752488803 -4.155761542 4.220123542
-4.174938387 2.753782944 0.3728592779
-3.91758213 4.335003438 0.3172915107
-1.368622426 3.607721248 0.9479203098
0.5465961547 -0.02269894699 5.679782813
-4.814189025 -1.481503979 1.033881971
3.603526501 3.507494771 3.712761132
-4.90500868 1.925611885 -0.1311344592
-2.20073989 -0.7709490436 0.7162227529
-1.595424673 4.859387238 5.691235829
-3.529750769 1.99422027 0.5950967365
-4.77694451 5.286743357 3.899040763
-1.237584707 1.425365081 5.157694385
-0.5071743843 1.876818518 1.322042147
-5.256826245 3.174042849 2.48816689
-2.516439532 6.02764352 1.397908852
-3.183414953 5.448839764 5.063924689
-1.509893342 0.09537644638 4.811078443
-4.866848797 3.78675098 2.224238238
0.81930345 -3.126145984 0.728853668
0.6440838849 5.138593245 3.433306175
-2.081895594 -0.1702332717 0.3045781909
2.571818771 4.182766677 3.039209452
-3.67019137 6.470862536 3.952067297
-2.454484995 0.4301047343 3.779501934
1.138909022 5.276282136 2.554416841
-3.874109353 -0.1640796104 3.659489791
-2.419670889 4.065414966 5.139994542
1.838369438 -0.3553881062 4.077454548
-2.945651653 2.07820145 0.2427868181
-4.929446009 0.3095053489 3.273238581
0.9030579576 2.620291936 1.819492201
-0.1905346462 0.4217149927 5.432473553
1.860533298 4.450607563 3.460889761
-2.793291776 5.407105398 5.214379866
-2.957970858 -1.920858367 0.8088125541
-0.2782171231 -3.100732617 1.583924286
-5.961313933 1.554688944 2.308474113
-3.681284283 6.623069846 2.861596528
-0.127372765 -1.177277381 5.173051228
0.150554297 3.4784848 6.184934924
-3.348668005 -2.480984038 3.003960293
-0.1244185769 4.646582836 1.71515862
-2.602062067 6.154855013 4.740357285
-1.853911273 2.327608515 5.068458072
1.172119655 2.559677914 1.932802959
-1.426659441 5.577125691 4.261768226
1.036635107 0.07409649786 1.362905718
-6.381746498 0.3716216369 2.636903213
-1.905337845 -2.627019711 1.824553506
-2.386506757 -2.532185425 1.96213126
-4.017674195 -1.921743629 1.562766839
2.100400672 4.301347833 3.968730337
-5.464342405 2.457913739 3.432144642
-0.8003856099 5.514853381 1.574900019
0.3554792115 0.3815503761 1.127260318
0.3103511452 -3.58227398 2.68394524
-6.695694645 -0.7147454542 1.747168045
1.070888392 4.327702529 4.713420307
-5.083137477 2.211513839 0.8419848403
-3.168225678 3.15808644 4.619526337
1.324613441 2.220435183 6.470989575
-0.9562035893 0.1090114417 0.4828359138
1.877692689 0.8725229764 5.659574296
-3.31928056 2.998794305 4.510110481
1.438390088 1.557184997 1.827564413
1.156287175 0.2986052063 6.016044491
1.487740251 -1.265656201 1.616861212
-0.4289502697 5.617996044 2.181705661
0.1045510111 3.776377499 1.664578797
0.5026546769 4.703546708 2.022256862
-0.9819283946 3.81289183 1.163121489
3.170587066 3.434172545 5.314344965
-0.4410237896 1.85153411 1.032468597
0.06590264222 -0.3191203584 5.408822924
1.550583407 -2.783376552 1.659368131
-2.42342968 6.025028501 3.556622936
-4.484481737 -0.4005956755 3.348694807
-0.3563245157 -4.200339857 4.489562416
-4.529524046 4.782980646 2.575746859
-6.507930497 -0.6960557782 0.9588478646
0.1946525403 -3.129751356 0.8951319111
-6.297878187 -0.8958476813 0.8018308418
-5.159407018 -0.0008623284634 -1.438352857
-5.925892063 0.4916396902 0.899681109
-5.110100623 3.029537469 1.866632895
0.05205932497 0.8403744714 5.620696059
-1.576044177 2.521757301 5.216715699
-5.480563996 -0.1853714855 2.741062918
-0.2349696558 5.295445704 3.861713796
-2.352253455 4.646068136 5.292122168
-1.292830777 -0.7574981422 4.72577407
-3.545507446 6.171082316 4.497296515
-3.63186726 -2.296203113 2.200558301
1.025639749 -0.402093205 3.037002887
-4.253071945 5.517148703 4.583341641
-6.583579823 0.1341333468 2.429784793
-4.322510778 -1.81329489 1.532048523
-2.233229094 3.358591766 0.5237946542
1.561332296 -0.3249599387 2.281243964
-2.21593396 -0.6388179924 -0.1789592255
-1.785810162 2.345254375 4.699157489
0.3156985882 1.745573784 1.77801797
-1.342175446 2.207939249 1.731770249
1.660394768 1.231707286 5.915580879
1.074186864 -2.897863195 1.579731561
-2.931193094 -1.847149157 0.503269222
0.5292653661 4.751149986 4.543205559
-2.146663864 6.590784328 1.190282041
0.683856181 -3.356824687 1.987683073
-1.178659731 -1.826923038 4.572243251
0.2948723332 4.053678294 1.813854592
-2.606867009 2.579315002 0.2166991454
-3.184708165 6.212027246 0.8886660111
0.5137207837 -1.263745457 5.457761183
-1.67233764 2.560108292 5.192681125
-0.7411089299 -3.455166366 2.682509451
-1.136636806 -3.789558618 3.968540322
1.23265038 -1.719842247 4.104969996
-0.6755018841 4.876555143 5.469397949
0.5957727625 -0.8971175867 1.034368216
2.620972076 4.111341156 3.252948142
-0.5671652634 4.791411044 1.549026569
0.4854008734 -0.5478380328 5.568175311
0.4426147904 -3.072229129 4.278858908
2.579326666 1.360060032 2.852346905
-2.210813838 -0.9684387147 0.5217376975
-4.157146932 -1.1364463 -0.6064664541
3.526770957 3.294481533 3.760369152
0.5658037038 -2.743314717 3.392195741
-1.950947466 0.1925531976 4.59729052
-1.659332232 4.767748358 1.052034341
0.6021542782 4.355932222 5.785471744
1.073949283 -0.05105851578 1.337158937
0.3123208682 0.7584145826 1.464128649
0.199901573 2.881332215 1.583322694
-1.380987179 5.963069563 2.119312222
-0.1170516421 0.4331311391 5.301180563
0.4336015198 -3.77000069 3.476777443
-0.9138302709 5.470395657 4.027939653
-0.8182294602 0.2805983745 5.12447438
-1.750297661 1.577498248 0.4100652546
0.06996295597 -3.42080326 2.117390574
-3.133392209 1.995105721 4.403596829
-3.276658113 6.128241697 1.533897099
3.102692926 3.310917557 5.352674807
-4.181967071 -0.8225706239 -0.1128766983
-1.466352423 4.875037674 5.706158474
2.660807452 1.043714412 3.173797478
1.180415352 -0.679753049 1.607763816
-0.4889740327 4.907386099 5.249577399
1.478339056 -1.397795291 2.046131997
1.406973494 -2.039301364 2.786442665
-5.1534108 3.378381583 3.744069698
0.237478147 -3.193677977 1.043300315
-1.536540847 5.454885335 1.219139755
0.1411251621 1.063796281 5.500834953
-5.755454963 -1.105556296 0.909745386
-2.544175149 5.680495885 0.8510570836
-5.431559082 1.141662753 3.18658911
2.431317998 1.188340202 3.963150902
-4.498893872 3.789881211 1.174279637
-3.59817433 5.774221121 4.759061254
-2.449458899 3.156979442 4.951226347
-3.884859905 -1.625263551 0.5410781414
-5.247595818 1.59902462 0.415796894
-0.5144916828 -3.576550454 2.822250188
1.976456426 4.255386208 4.124832347
-2.689529381 1.526430028 4.523606178
1.6116706 4.591728949 3.34512024
-5.162817758 1.755643958 0.3739455846
-0.3721296769 3.537129833 1.401610117
1.043488172 2.030121086 6.309027568
-3.193674834 6.59071901 3.085141009
0.1148316018 1.65855217 5.813243375
-5.11164498 3.223614485 2.128239302
-5.635567373 -1.233744777 2.672092327
-2.815459788 6.330958242 3.114760443
-1.846145214 6.190617901 2.401963106
-0.07162518981 -3.226811501 1.76336142
0.6256701896 -3.014474208 2.651883429
-0.7582362681 -1.925026511 4.703759199
0.594783367 -2.982144343 0.6332628461
0.3438220073 1.426229187 5.868536921
-4.74190914 -1.210138004 3.053728448
0.6819684269 -3.458662056 3.188958754
-0.7669246052 -2.44538566 4.638838761
0.09582465178 -2.944060766 4.912046258
-5.685497 -1.686610566 2.580937285
-5.467534991 -0.1072499582 -0.7812750348
-1.235418297 3.30611217 0.9604670141
0.9738201662 1.223665696 6.123031227
-3.186917921 2.560147144 0.4564777474
-4.692547049 -0.8331171035 0.07290473046
-2.717050784 -0.1430576894 3.704659941
2.335707645 2.586185106 6.468460105
-0.3351824523 5.107270759 4.543534873
-5.407251315 -0.3238354262 -0.2387510637
-1.080695299 4.477719954 1.27494892
-0.071036029 -1.200006055 0.6328114364
-4.865186859 3.422629761 3.904535541
1.878454279 -1.712515638 1.839031843
-3.1415097 6.017982624 1.653766804
0.5141866332 -3.749514235 3.284148598
-4.517182251 0.4353317121 -1.050482764
-0.6991900266 5.407747493 3.983984507
-2.737954289 -0.8095718053 -0.5055953262
-4.707691524 4.001986159 2.025808164
-5.851412067 -0.9050993513 2.396289304
-0.2335320548 -3.055270368 1.492298364
1.709207926 3.550293884 6.52011409
-5.571064516 0.1729729252 2.799294824
0.506047168 -0.3028273049 1.059928924
-2.281722342 6.108745269 3.287922696
-3.715550346 0.587038148 3.87572274
-2.535895979 4.005701875 0.5343066386
0.9332173292 1.244465781 1.541273018
-5.085352743 2.334702188 0.9549072312
-3.359337941 -2.004536933 3.401891394
-6.135042258 -0.9594561051 0.8731527076
-0.5280411694 -1.418647333 4.767861356
1.287585167 -2.684618966 2.382251929
-1.855352564 6.218621569 1.842958948
1.275758598 -0.7356678066 5.080799472
-3.07413809 6.18043631 2.508611444
1.206667632 -1.370592622 4.387794976
0.8574698489 -0.2832291734 5.795021572
-2.464663699 4.400274506 0.6048775422
0.5499425097 1.011885069 1.412154797
1.683665337 -0.6823985754 3.607419171
-3.667979021 0.4699247541 3.883159495
0.08085412862 3.268305383 6.096646916
3.309612126 3.450908326 4.915687025
-2.276265979 -2.079323265 0.6358907619
-1.83907351 2.322162308 4.889360569
-1.408806556 -3.368111325 3.034509796
-1.720789075 -2.953534981 4.109357142
-5.531418342 0.7372095025 0.2321365284
-3.773436754 4.553635904 0.3049857091
2.968885602 3.102513371 5.051327068
-5.121676465 4.375306987 3.909351547
-4.838805797 -1.179856842 3.044774612
-6.209744189 -1.469618092 2.299977014
-3.249979717 -1.822181817 3.645177718
-6.040722075 -0.3245076267 0.5960645341
2.388296555 2.971410962 6.759953906
3.135860504 3.269647188 4.801736898
-0.6759290803 3.063554515 5.699269245
2.439923428 2.312126282 5.854602258
-1.850521583 1.093230176 4.829795842
-5.998147123 -0.26514342 0.04857599557
-5.274780876 -0.1950247218 -0.7226313073
-1.78957702 0.1087060266 4.660831422
2.85690831 3.055315566 2.782315882
-2.58378507 2.194386318 4.698686115
-4.866384776 -0.1181169229 3.219165448
-0.5833180789 -3.066270074 1.807120033
0.004773809583 2.788962719 2.058220242
0.6255555006 1.905594179 6.089448382
-4.177325562 5.689569396 2.78536276
-5.073668623 -0.1778558804 -0.9515006525
1.127209739 -0.8702413489 1.421205966
1.584255627 2.712570838 6.651681103
2.065937684 3.984332556 5.329719113
0.9797665861 -3.44288461 0.9947441568
1.155788234 1.152908375 6.179431535
1.071508144 0.4652008676 1.468040894
3.07639714 4.02116785 3.079980188
-4.314222376 -2.269341389 3.071958634
-4.799324187 3.336500403 1.505710764
-1.485468524 5.803567667 3.160972758
-1.931561547 -2.966132217 2.419634609
2.014054761 0.1203060371 3.798628648
1.846094649 0.1182332544 4.63173611
0.08613387293 3.837786214 1.818731187
2.708068133 0.9937854076 2.706829503
-2.797936902 1.199126016 4.285331155
-2.791066704 -1.356555549 0.5462873312
2.258048684 0.7486252908 2.083292447
-0.0331080961 5.817223754 2.172924089
0.6341886936 2.878558762 1.892381934
-1.858400844 2.014381264 4.996681677
2.355654118 1.160486884 3.94978998
0.2277739085 -3.987191858 3.696290151
-1.079074328 -1.152695802 0.1861071346
2.297009118 3.445920629 6.601347946
1.029233307 3.066268311 6.325266715
-3.705521017 4.843909531 0.3943575683
1.392563304 -0.5712308917 3.377574424
-5.206069275 -1.272387986 0.7773454682
-1.708895178 2.068467835 5.060400455
2.057367954 -0.4437341263 2.390248663
2.752833858 1.125375157 2.774220854
-1.171519632 1.424028034 0.6470775839
2.413849137 2.286271754 5.514640721
-4.900832511 -1.662667541 2.905977006
-4.624207553 3.776428866 4.050083482
-1.193869194 -3.415907195 3.025357084
-2.927905082 6.31749637 3.262948841
2.699031408 0.8546291501 2.47370647
-3.260640061 6.241524071 2.205025089
1.117153654 -0.1933939272 5.888692373
-2.566689659 -0.8443283846 0.5168220193
-2.144713809 5.878453627 3.425777954
-1.144486699 -1.04005687 0.1677625973
1.339317236 0.04496925704 1.492906226
-2.710838295 2.920748292 0.6101265958
-0.06153408823 4.03284266 2.122518285
-2.516038354 -1.759584876 -0.3114199794
-1.952110411 1.097487597 4.761373487
1.511629326 4.356194609 4.243578484
1.050250625 4.62056555 3.986278597
-2.675517234 -2.179972194 1.331396729
-1.341894937 -0.638266216 0.2935992417
-1.164371645 5.524808686 4.148952271
1.699524436 -2.554658769 1.296767561
-0.08587664722 5.528477285 3.078578139
-1.529597611 -3.403159862 3.613473791
2.094872078 2.240283935 6.131628255
-3.163692581 0.02675831185 -0.5346897529
-1.827057411 1.815863406 4.972226848
-4.889406176 3.939969867 2.459201088
2.403804875 0.8714080889 2.135830934
-5.276127143 1.386416951 0.2370288051
-1.658623381 4.275456234 5.516182729
-3.591879653 -2.324957132 2.997497207
1.515161026 -2.331158425 1.440317477
-0.5238268495 -3.344874512 2.533827698
-4.089196087 -1.307485418 3.34578972
-3.533367916 6.883392023 2.650614234
-3.83442296 6.593758373 3.006083495
-6.798161595 -0.7425818394 1.853297658
1.282817776 -1.172941485 4.459272227
-4.578347137 5.553914281 3.908097978
1.327355856 -1.753300964 1.156967043
-2.459674368 -3.005525902 3.769383586
-4.528656337 4.083268875 1.6688916
-1.795737331 6.095910865 2.840625141
-0.4892005062 1.096837253 0.8934269172
-0.8509428416 -2.450276634 4.453442736
2.396651863 2.503781759 6.201345634
-3.732806145 -1.034277891 -0.8238873041
0.7541515367 -1.720456693 4.778186297
-3.28947661 -2.003078068 0.9980251476
-5.581198408 1.501477624 1.119438927
-2.736233238 0.1578300322 3.845729795
1.803594201 0.1687453309 4.835886651
-2.935020637 6.899644063 1.269171762
0.8616578926 4.393270717 4.981497398
0.397048356 -1.830216037 0.7616634394
-2.147864138 -0.8103299242 0.5948381261
-4.838072377 -1.514955646 1.121221374
-1.579572075 0.6017173276 0.2944265354
1.042190021 5.132510644 3.074164506
1.140373722 -1.427260641 3.328840946
0.916100094 2.228450666 6.255771179
-2.09942365 -0.4159376185 0.8495506159
-4.824566031 3.080820466 1.232827736
1.16998315 1.77489126 6.287652563
-3.755866252 1.630893574 0.7257421015
-1.209927247 2.109040999 1.364745148
-2.556292671 -0.9286295087 0.6998066536
2.274779214 4.220848958 3.912171443
-4.58325641 4.066686652 1.736450106
1.928993732 4.43265653 2.59121559
-2.224580183 6.155432236 3.114092384
-4.922964318 -0.1314138439 -1.328418197
-2.499026628 5.520857314 4.85385917
0.9258447212 -2.525707043 2.488297572
2.186171369 1.99603052 5.695775627
-1.062776924 2.272680249 5.40290104
-2.564282906 0.4051320992 3.968747024
0.9503429423 -2.256612506 3.662480233
2.581128637 2.488776621 5.730520268
-1.971895093 -3.349633249 3.573001381
1.777196628 1.37638364 1.961312517
2.39752516 -0.2681899126 1.993901121
1.560584471 3.243749807 6.784186541
0.9283595101 -1.541731006 4.33322167
-0.9959062361 2.778190076 5.542678462
-2.229040599 1.889047457 0.2479815671
-0.1762017251 4.309132552 6.201804553
-2.995008901 5.182369721 1.184599698
-1.279527568 -0.8523028081 0.2067396421
-2.058568897 0.1389160475 0.04106177589
-0.7732060887 -2.616776799 0.6760223144
2.053180296 1.991002945 6.065997556
-6.332076798 0.2497759318 2.634577024
-4.784692925 -1.33011613 0.5216611765
-2.36892325 -1.292305874 4.130120874
-5.647597929 -1.239239463 1.158174161
-0.8091699012 1.667530667 0.8453525715
2.666113119 1.341496422 2.348605866
-3.225371829 2.76447658 0.7832683413
-2.788053281 -2.706614454 2.52045102
1.495775668 -0.1120333915 5.303652862
0.2385827171 2.005658056 5.946146349
-0.4706028534 -1.121746211 0.4931382167
3.089531262 2.509987306 4.084970751
-6.393237199 -1.147173423 1.609117435
-3.352732662 -1.580584276 3.028139081
-1.049922617 -1.051887845 0.2349537736
0.6395289736 -3.68776423 2.950342148
0.8120925309 -0.9212705687 2.18810328
-2.438363682 -3.174522307 3.481220034
1.073524004 -3.375000836 0.7553774699
-6.188421701 0.399800738 2.729743953
1.163255799 4.287059623 4.885702288
0.3922955232 0.4898485816 1.181490895
-5.412533891 -0.05679316055 2.987400586
-3.832955793 2.314900608 4.141384926
-0.9396659236 5.769493705 3.165485721
-4.629887918 2.915754102 3.887250268
1.129749156 -2.742618593 2.323145938
-4.232589143 -1.799594234 3.201622077
-2.633479423 0.3477289912 3.82023147
0.6051372372 4.368180677 5.05963743
-6.487733831 -0.1060024288 1.53341313
1.962738837 -0.07537142473 3.741538451
-1.474593406 -0.1262139585 4.757432195
-2.990358329 5.760545486 4.684157563
0.08191997745 -3.473250595 4.805781525
0.8991766994 -0.9989031599 1.854621118
-1.984943228 -2.033976626 0.232641116
-2.168773564 4.300135933 5.272757132
-6.076477853 1.372135908 2.677029448
1.581481345 4.39000061 4.414001278
1.861145026 0.3423471091 4.894909444
0.8679011623 -3.509980239 1.262209074
-4.68235407 4.284424153 4.138751645
-1.621699261 -3.214904384 4.117246315
-1.67770837 2.765493608 4.632718967
-0.7231837363 -1.620548489 0.2587065197
-2.900142643 4.759409898 5.045659008
0.2256788175 1.697095175 5.868238552
-4.910958442 4.17651859 4.036927675
-2.991534833 -2.713692098 2.760915704
-3.702294859 1.737187733 4.001523654
0.952190534 -2.159751711 3.561037973
-1.736962944 -0.5807358704 0.1442378091
-1.605925072 0.8709630383 0.3362543947
-4.06354006 0.4532320138 3.6935524
-3.846173565 4.409797878 0.2478765692
0.2605810173 1.891282664 1.773315241
-4.502227955 3.885612834 4.143123805
1.748520373 0.1643316725 4.922871901
1.396656607 -1.561685638 3.767921085
2.941688969 3.355175139 2.877914566
1.067128868 -2.494299499 2.102118523
-2.844754667 -1.475637474 -0.4912670873
-1.406054993 0.2487994884 0.3120674692
-3.053814796 2.508848053 0.4145461349
1.014263776 -1.447220408 4.845031833
-2.932821734 -0.1678576635 -0.4724815972
1.182553699 0.3982213383 6.0577952
3.245444156 3.823303717 4.158921572
-1.538172162 0.01622533439 4.768659938
2.175957435 4.004233627 2.645738392
1.643024974 0.09413895474 1.663892621
2.53645771 0.4912915929 2.672651879
-2.961774834 2.216351232 4.526894955
1.138931683 -2.608765954 1.662742163
-3.607867148 1.791476779 4.129607713
2.761481636 1.679051049 3.642524035
-3.351537634 -1.692737817 3.115603577
-1.430074934 -2.347205473 4.335436755
-4.260037238 3.962523144 0.7471761577
-4.727757467 5.250365369 3.939976828
-1.127066348 5.685214346 3.617193844
1.299023411 -1.961915559 2.974944398
0.2381490577 -0.8326652077 0.8579164828
-4.266212387 4.477344825 4.386856691
-2.777978437 5.316696081 0.6479577927
-2.67045872 3.695856475 0.7587020545
-3.155022988 0.65038755 -0.4101179927
-2.430757364 -1.450927062 -0.343685604
-0.1947124093 4.297724961 3.338216528
1.224404506 -0.07220258984 5.495210593
-5.099323021 1.467554358 3.396971743
1.108732696 -2.067492647 3.547328133
0.6638631334 2.156428267 2.135428801
-0.6188220045 2.874976745 1.174464458
-0.2181828845 2.782218855 1.925612095
-4.267840724 4.436066382 4.335362164
2.32564162 2.358087843 5.57522093
2.187967541 4.267669054 3.609785
-3.248340483 3.262888783 0.9747934961
-3.988275538 1.882574775 3.989278225
-2.906175078 -2.607770241 2.372536133
3.123099322 3.90278591 3.99787976
2.938904104 3.187705451 5.603000984
0.7988836017 3.85725366 6.532798188
-0.9237603679 1.129650672 0.6869450602
-2.046608283 -0.08976504673 4.522206543
1.017356925 3.283528886 1.995993113
-1.631267209 -2.017225455 4.315210967
-0.06175022495 1.921170589 1.629368981
-0.6926194306 4.416317909 1.429696198
-2.83483257 2.293440521 0.312313841
-4.717878746 4.299144575 2.500431381
-5.089583668 4.065342084 3.187480543
0.2982713927 -2.091488102 0.6404363967
-3.449669498 -1.278206378 -0.6278603928
-1.967336392 -3.193030332 3.446477426
0.01036276247 -2.948968561 0.9707748925
-0.4410540811 6.03870647 1.887918254
-2.365627372 -0.5461755752 -0.2945998087
0.8456400974 -1.384163452 5.439694267
-1.899259144 -0.5859364379 0.4223706774
0.7023800787 1.929007767 1.97872592
0.2218262456 1.557643972 1.80164311
-3.011967622 6.073250102 4.052217286
-5.991127153 0.715110362 1.350194472
-0.04057775782 -1.219908369 5.199291498
1.368961209 4.696508065 3.137969361
-3.775123033 0.7322288361 3.86697873
-3.178272839 -1.619490945 3.692483772
-2.65759918 6.186663028 4.708839507
3.047047141 3.817491026 4.430393861
-3.048457163 -2.744500619 3.152022597
0.9278538563 -1.251744203 5.33048085
1.296233543 4.750300923 3.474553396
-1.607892388 -1.117605185 4.516612748
-1.473329479 -2.152711983 0.001344957762
0.546924638 -1.378494111 3.009770133
-3.085399884 -0.8490372389 3.255725017
0.09850571832 -4.025015162 3.500638104
-4.726393577 -0.8584197018 -0.8346135482
-0.4748546698 -3.814403461 3.383756237
-4.424076595 -1.622978988 1.098000137
-2.784799848 3.656699244 0.9631726398
0.9219172022 0.02035634241 1.29705737
-2.029413364 2.787506132 4.896621424
1.059624275 -2.517480531 2.983932543
-2.927295056 -1.131225549 3.295775836
0.9497835048 3.075231362 1.911411283
-5.198736763 0.2652779524 -1.293620571
0.4070067541 -3.386419028 2.737203902
-5.826246124 0.8873429914 2.983944282
-0.4538202159 -2.984592596 4.660810005
-1.451291764 6.564803619 2.392001582
-0.2246119421 4.374950972 3.571857812
-0.353384197 4.647788287 4.142165739
-4.318106992 -0.3591691082 -0.9126528335
0.8216607776 2.459569946 6.283674611
-1.156241061 1.40774502 5.205782051
-2.118133874 6.287947652 2.037518347
-3.776243179 6.544940886 3.489012586
-5.10807534 -1.916045184 2.492201688
-0.5524930585 6.080944419 1.95777278
-0.4121129329 -0.590055548 0.6239776905
-3.862769811 6.451094295 2.862527345
-4.027682395 3.288427029 0.5860070638
-2.738353119 -0.1519460254 -0.3726090186
0.1609633585 -0.04144768274 5.50621155
-3.936600384 2.575053659 4.148278488
-5.212642315 1.804716455 0.5822072652
0.954742917 3.78756297 6.579425249
-1.986360673 2.304087213 0.447868613
0.2718884414 4.493679078 4.894754885
0.6406227787 2.897516582 1.715433094
-1.58662147 -0.510524717 0.1872043143
-3.564684174 -2.421847849 2.448878809
-0.997011077 5.658195285 3.571000334
-5.605851827 0.7929682835 3.046462755
-1.577723039 -3.341057871 3.178003681
-3.211972094 0.819137796 -0.374880536
-4.467255168 2.799584005 3.766922476
0.1070556145 4.907951828 4.616125059
-1.635621856 -2.358549084 0.7725754095
-0.5158205358 5.182515323 4.476667916
0.792032805 2.720754407 6.280945524
1.30587225 4.61122941 3.874075319
-1.720731445 5.390143829 5.089594446
-3.819580798 5.112493859 1.071929458
-5.412231655 -1.833842154 2.598216622
-0.9283665865 1.689598881 0.8109106169
1.671818233 -1.244346612 1.424107974
-2.897067369 -0.6754340436 3.873821213
-4.751286126 -0.2792834692 -1.0435617
-3.189461496 5.398203236 0.7083383482
-1.083183355 -1.227359018 0.1783863816
1.789913071 3.669347628 6.627727199
1.877462375 3.445682203 6.465274788
-5.523849456 0.8148550599 3.089768826
-2.321291487 5.44393863 4.928159524
-2.231258887 1.087501365 4.265902834
-0.3348343759 2.347508245 5.735907658
-0.1287552464 4.48200256 5.700249571
-4.37716112 -2.008842736 2.036452774
-3.634348955 6.684969996 2.571629513
-0.5996383636 -0.6123582941 0.5004132459
-1.587508847 3.891744724 5.099402608
-0.1416042627 -0.07850975091 5.214191668
-0.5553567561 1.859717293 1.394057207
-3.047165375 4.893978493 1.151891649
-3.122235121 0.8419031494 4.193066126
1.075376807 -2.432189126 0.938892837
-4.20434488 3.57617184 4.198436414
0.02091827887 4.810018287 5.003415778
1.617140018 -0.1642484575 1.654171118
-4.503542924 5.316615202 3.224420337
-5.70455869 -0.007990366375 2.869237919
-5.053672405 0.09504702938 -1.353103671
0.3621381595 2.879165233 1.783158215
-2.367134121 0.1754809057 4.410325472
-3.066020999 6.72938274 2.608843578
-2.584807802 -1.72592358 0.4846219451
-2.211530098 -3.306661332 3.67803071
0.7480170846 4.513568993 4.946398255
-1.478254139 3.318396713 4.819834153
-5.102758627 1.230194148 -0.3518003824
-2.222386626 4.218383984 0.6729092557
-3.143475398 6.603410149 2.982021859
-3.451620983 2.472854668 1.022556311
-2.920358853 -0.7602654033 3.831055449
-4.061338444 -0.3801401799 3.549066474
-1.808683946 -3.206294605 3.018898913
-2.1336592 -1.167152995 4.262138719
2.325169205 0.01078003425 2.812215485
-5.351640912 -1.336808921 1.161092929
-1.506809478 5.905986182 2.841042422
-0.4147891783 4.651415843 4.423816603
-3.134488778 1.638678497 0.2643651128
-1.167133908 0.5564940427 4.921987888
-1.682028163 -0.08247987544 0.2872370247
1.621180026 2.514576279 6.649049461
-0.6621333602 4.712364791 5.483376342
2.742009735 2.058403827 4.15565793
-2.680730681 -0.05208676562 4.066489286
-3.505446247 5.631702409 0.8367363216
1.162143839 -2.026697384 3.334313007
-0.03625272387 -3.035710956 1.275058834
-2.642486636 1.170436601 4.404526099
-2.068508834 1.808116038 4.827234289
1.360794123 3.809574379 6.542853162
1.177016185 -2.419953351 1.827971916
-2.353448001 0.06285499893 -0.1414605484
-0.2251887651 -3.691701068 2.857666206
-3.035617985 5.412613993 0.53982652
-3.049688446 -1.049219484 -0.6936920334
2.195874896 2.250426603 2.306852053
2.02793111 -0.410919349 3.055317795
-1.65105709 6.037224011 2.673654833
-0.3150460758 2.876615877 1.284802808
-3.784476196 6.284509876 2.521655461
-2.658057272 6.812217672 1.928815418
-4.726964053 4.99154107 3.315564687
1.387849972 -1.537880622 1.215672292
-2.291996304 5.709794301 4.208403077
2.898032123 4.311249867 3.325119494
1.586550569 4.589156888 3.441317631
-1.455304068 3.958232512 4.917213073
-4.251705873 4.277244985 1.14865977
0.1498414649 1.20888064 1.489841924
0.1558139628 -3.135705019 4.539845397
-5.790360707 2.06100497 2.622431851
1.151334411 -2.802100328 0.9069568931
-2.046523564 -3.408777719 3.752765209
-4.580746865 0.06180630844 3.392847145
2.460803262 1.258661668 3.985435143
-0.05923275787 0.1492756702 5.446487674
0.315676217 -3.201298349 1.407185304
-4.449783326 -0.1201474725 3.414595294
-4.846894121 -2.028689691 2.601752619
-1.865461837 6.185797126 2.141984504
-4.422071157 2.19024897 0.4033876429
0.2795428957 1.964774267 1.553302767
-4.046287911 6.248359073 4.194656271
-2.397783535 -1.92467042 0.2786069148
-0.05949171361 4.794649261 4.948677107
0.3827736185 -2.557994548 4.82082576
-6.659893289 -0.3436039698 2.073152714
-4.089422924 5.359827966 4.620902463
1.240885705 -2.065652043 3.042481396
1.174509227 5.209629322 2.441177482
1.889148891 1.708461442 6.288290695
-0.6900183133 0.8673778544 0.7439171152
-5.048194203 -0.2130523221 3.125223343
-3.548982078 6.528298984 3.689677366
-0.7456100158 2.349425447 5.577619399
-2.46878126 4.732938609 0.6885230739
-1.213770959 -1.495057059 0.08686548057
1.201374108 -1.451187495 4.379315687
-1.670863686 -2.546293238 1.282765691
-2.300070921 1.144631747 4.240905893
-3.838905615 -2.243468686 3.238305877
-1.70332989 0.8060769619 0.2830930024
-4.297267584 2.408926084 3.953008709
1.21246268 -1.844435117 3.957967369
-3.690862774 1.137511519 0.5270753227
-4.908995077 -1.531835666 1.322164952
-2.498424119 5.863337392 3.908492974
-2.997700682 6.403086557 2.068024551
2.048429014 -0.4964768432 2.592460255
-0.4504279606 -2.377823509 4.789290575
-2.881586096 2.818040288 4.666086684
-2.876564084 2.856650076 0.1302600678
-3.34029398 4.800814557 0.300931199
-4.026004014 -0.3039627055 3.576524152
0.6614393149 -0.8146762441 5.608553151
-3.503487283 5.706532439 1.229027375
1.165761833 -2.564275402 2.610665228
-4.427588771 6.034067575 4.010345683
-5.473264602 -0.3495104194 -0.05459304548
0.4991292038 -3.272116916 1.469998494
-3.730038146 6.278605921 2.315041422
2.304586641 1.77067165 2.294716875
-0.3756938047 -0.9043653809 4.929084343
1.416282755 4.19421225 4.978366156
-0.7536007835 -3.525928155 2.944422535
-3.34829527 6.907648405 2.304686245
1.531653484 1.80625315 1.941225263
-5.433765253 -1.364553671 1.348087506
-3.534818658 -2.17620091 1.750930992
-4.736533725 -1.862957976 2.008604944
-1.640526822 3.385379169 4.73686461
1.130263274 -1.073287248 1.208770049
-3.411230147 -2.514769395 2.576699466
1.229564472 3.21346643 6.653503045
-4.890374189 3.856274278 2.35123869
0.1107106621 2.778562423 2.303615163
-3.11013953 4.990139219 1.49348754
1.125683264 -2.081805339 3.198090881
1.675718645 -0.05865021416 4.833964603
1.022126574 -1.218149093 1.977172507
-4.615671473 -1.022305634 -0.4610575116
2.051666245 4.410500614 3.858689762
0.9429081374 -1.631788306 4.441157099
-2.638836458 5.968694957 3.759728151
2.300096993 2.252743842 6.136134192
1.33745956 3.791985907 6.238252461
-4.614040197 2.849499435 3.743494339
0.5470304062 -2.60318053 4.293317792
-2.535887226 -0.07349354296 1.123600194
0.8526625254 -1.694417301 4.613134501
-2.377958795 -2.224964143 3.940288294
-2.845200167 -0.4178405004 -0.4569345908
-5.402712345 -1.49765498 1.681242502
-2.500879187 2.446991121 4.784576121
2.902624408 3.764678819 4.79988048
-4.159015328 -1.574789828 3.277560463
-2.854592871 2.376467229 0.4646606538
-1.131828903 5.241285272 4.897842376
-2.220948749 6.438798356 2.160210407
-3.61679019 6.504063197 3.753747084
-3.272600055 6.252404574 1.1981989
-1.728935256 -3.521247448 3.770296441
2.969752098 3.871455308 4.405942068
0.2318506825 4.860827975 4.581688221
-2.533519347 -3.079529807 3.378057459
2.087849731 2.700241551 6.902880729
-3.456228937 -2.764364546 3.367259171
-4.192919346 3.566266283 0.5621250441
-2.114367538 -1.889223993 -0.1307792176
-5.44598002 0.1547340259 -0.7376990596
-1.407515689 2.772471607 5.379180225
-2.543770856 6.493819321 1.565782024
1.016267703 -1.892285482 3.878359355
0.8734871959 -3.03549496 1.912806187
-6.335224874 -0.05292010605 2.576725365
-2.803384367 -2.838491213 3.05564875
-2.044289688 -1.300188845 0.004920188358
1.128135698 -2.11139108 4.380704242
-0.6350740972 -2.199106177 0.1985839321
-4.601277326 4.907475765 2.891853623
0.461329247 0.2325721305 1.171050762
-2.608527371 -0.2263787754 4.232329684
-3.300220609 0.7267949588 -0.4511524529
1.562159186 2.628677924 6.655505777
-3.907086292 1.170093151 0.1917989804
-6.156778928 -1.271763111 1.822760735
-0.5736539969 0.1672387222 5.226901111
1.759230337 -0.1422695184 1.639457198
3.474456911 3.127146385 3.58825127
1.613763162 1.349566192 6.430758179
0.8255437017 4.341891902 4.952039144
-4.774435321 3.920316285 2.074154365
2.28212801 3.498222449 2.605478698
-2.102584672 -1.540277194 -0.07483982607
1.078437116 -0.7279453504 5.244405042
-0.6121419814 -3.252640459 2.306903004
1.741242416 -0.3837344176 2.34734299
-3.288610308 0.9283521648 -0.0501729397
-1.987076855 -2.494879197 4.060115732
-1.132751668 -2.06072405 4.554923138
-2.1375277 -2.488133622 1.641673971
-1.817352151 -2.076024448 0.08668145971
-0.523371839 5.026927025 4.906959264
0.7070075988 -0.3213949737 1.154230208
-3.23122334 2.979970472 4.570402715
-1.027668361 2.055118084 5.388232943
-0.1785411876 -1.860060188 5.002602239
-0.9272098266 -3.823433139 3.965024609
-1.746371381 2.300000112 5.103739284
