# .PCD v0.7 - Point Cloud Data file format
VERSION 0.7
FIELDS x y z intensity
SIZE 4 4 4 4
TYPE F F F F
COUNT 1 1 1 1
WIDTH 1142
HEIGHT 1
VIEWPOINT 0 0 0 1 0 0 0
POINTS 1142
DATA ascii
3.4981461 2.6649384 0.98271537 0.039069232
3.506108 2.6477523 0.94486213 0.041549057
-4.3427839 2.7465622 0.95037955 0.63171065
3.4964898 2.7258899 0.97421008 0.038500004
3.537472 2.7632618 0.94126952 0.047654342
-4.341136 2.8426344 0.95551127 0.5965113
-4.2500801 2.8892903 0.95005 0.14918001
-4.1495762 2.8850093 0.94030488 0.098733336
-4.0412436 2.8858175 0.94449127 0.15943043
-3.7148333 2.8629334 0.93703336 0.1653
-3.6467812 2.8741484 0.94554591 0.18969999
-3.5625029 2.8649964 0.93777573 0.1118931
-3.4402316 2.8661811 0.9424063 0.054212496
-3.3717 2.8552999 0.94950002 0.061299998
3.5209365 2.8562467 0.95018905 0.034621816
-4.3370214 2.9474337 0.9643355 0.53906965
-4.2419271 2.9530973 0.94853061 0.16399723
-4.1459141 2.9486229 0.94885725 0.17313428
-4.037261 2.9494829 0.94506663 0.20833653
-3.73136 2.9450202 0.93170005 0.16518
-3.6450772 2.9474149 0.94793993 0.23982354
-3.5636668 2.9404893 0.94807774 0.13541669
-3.4408646 2.943943 0.94625711 0.10642143
-3.3974164 2.9657166 0.93775004 0.15826666
3.5114498 2.9486361 0.95157719 0.044816352
-4.3399897 3.0452487 0.96766198 0.60594541
-4.2451258 3.0511861 0.94987726 0.15616572
-4.1523156 3.0503836 0.94944596 0.16730541
-4.0393867 3.0483689 0.94655442 0.19725591
-3.7059 3.0745001 0.94559997 0.2085
-3.6603241 3.0559983 0.94810504 0.22176559
-3.5416093 3.0468454 0.94869095 0.049590908
-3.4349775 3.0570555 0.94848889 0.070300005
-3.3978426 3.0458 0.94145715 0.14568572
3.5192029 3.0434179 0.94959289 0.045404691
-4.340044 3.1460214 0.96959704 0.61805463
-4.252995 3.1488361 0.94886905 0.15825129
-4.1452312 3.1526299 0.94954336 0.16372271
-4.0367694 3.1474948 0.9461655 0.21280342
-3.9989336 3.1835668 0.94546658 0.18758333
-3.7158799 3.1442199 0.93709993 0.19168
-3.6538734 3.1472802 0.94748861 0.19718835
-3.5587859 3.1586001 0.94822854 0.03794286
-3.4507298 3.1451802 0.94750994 0.071829997
-3.3927627 3.1545999 0.94048756 0.124375
3.5392709 3.1500754 0.94915432 0.040536143
-4.3398786 3.246707 0.96944714 0.60740441
-4.246769 3.2530029 0.9504531 0.174475
-4.1532402 3.2505076 0.94982618 0.15891667
-4.0429072 3.2480602 0.94808578 0.18239287
-3.9990077 3.2532918 0.94472301 0.29743075
-3.7437999 3.2505 0.9235 0.17290001
-3.6572452 3.245852 0.9478603 0.19513455
-3.5418818 3.233573 0.9490273 0.05475454
-3.45508 3.2458603 0.94929999 0.060300004
-3.3955445 3.2487776 0.94393337 0.13984445
3.4993999 3.2444999 0.9242 0.0178
3.522465 3.2418492 0.94554347 0.038314458
-4.3382635 3.353545 0.96468902 0.62560481
-4.2514997 3.341367 0.95038325 0.15180415
-4.1478 3.3363893 0.94699997 0.17043447
-4.0466371 3.3364122 0.94763339 0.17082727
-3.9972351 3.3365765 0.94367051 0.27772355
-3.6602032 3.3279586 0.94787061 0.19089118
-3.5531456 3.3325911 0.94116366 0.0341
-3.4556999 3.3336201 0.95036 0.042680003
-3.3936999 3.3203335 0.94394994 0.12941666
3.5294719 3.3422534 0.93693125 0.028101245
-4.3384118 3.4552958 0.95170075 0.6378119
-4.2301998 3.4398999 0.9375 0.055199999
3.528018 3.4456153 0.94466519 0.045104079
-4.3380151 3.5530312 0.95138234 0.63509881
-0.23063436 3.5808468 0.9318186 0.47279063
-0.1537068 3.5563424 0.94811082 0.17113265
-0.038150001 3.5836747 0.99349171 0.05761667
0.057149999 3.5861714 0.98766428 0.064607143
0.18637997 3.566714 0.94642115 0.18431792
0.22790506 3.5715468 0.93510342 0.17118497
3.5846648 3.5783 0.94964707 0.034859188
3.606636 3.5555503 0.95350397 0.049841989
-4.3379169 3.6509807 0.95139039 0.59085882
-0.22479379 3.6265662 0.95828122 0.60467911
-0.16540717 3.6278536 0.98454297 0.18527856
-0.052850004 3.6261861 0.97627848 0.071371421
0.038916666 3.6225336 0.9731999 0.059966665
0.17387143 3.6217639 0.97935724 0.21436788
0.25663078 3.6349156 0.9599278 0.30761927
3.5405157 3.6486199 0.94863474 0.039724853
-4.338223 3.7491171 0.95211434 0.62139899
3.5721097 3.7686498 0.94620341 0.18546629
3.6759002 3.7554998 0.95444161 0.48293331
-4.338028 3.8524077 0.94999307 0.61889315
3.5704703 3.8509126 0.94837999 0.20508787
-4.3371129 3.9535811 0.95116502 0.60687894
-3.7962999 3.9926 0.91759998 0.0037
-3.6777999 3.9974334 0.98410004 0.0043666665
-3.553 3.9926 0.91065001 0.0048000002
3.5701673 3.9509673 0.95137334 0.2076177
-4.332541 4.0330763 0.95144987 0.45666257
-4.2470517 4.0303879 0.95001471 0.017643901
-4.1520085 4.0287333 0.9558 0.003116667
-4.039825 4.0219374 0.97877496 0.0033875001
-3.9301124 4.0184498 0.93660003 0.0035249998
-3.8500669 4.0178328 0.95386672 0.00388
-3.7472463 4.0155997 0.94340008 0.00446
-3.649657 4.0126138 0.94284999 0.0042642858
-3.5384309 4.0330129 0.95109242 0.011048719
-3.4972 4.0752001 0.92979997 0.0031999999
3.5699763 4.0503187 0.94802868 0.19279024
-3.5161297 4.1376753 0.94971496 0.018715002
3.5704277 4.151773 0.94978815 0.18490437
-3.6214666 4.2493668 0.95943332 0.0079666674
-3.5814133 4.2620821 0.94216955 0.02796522
3.5699692 4.2539563 0.94878179 0.17463306
-3.6173 4.3303137 0.9766143 0.018528571
-3.5664148 4.3423481 0.94852227 0.045411117
3.5703597 4.3535638 0.94870448 0.1596045
-3.756 4.4519 0.98189998 0.0276
-3.6463389 4.450531 0.94954622 0.027476924
-3.5820749 4.4553752 0.92787498 0.00765
-3.4820001 4.4864559 0.95946664 0.020211112
3.5721309 4.4532018 0.94969904 0.1525688
-3.6345999 4.586 0.9016 0.0085000005
-3.5612001 4.5657997 0.96100003 0.0077
-3.4800358 4.5468497 0.95052141 0.0066285706
3.5752277 4.5510783 0.94905573 0.15657274
-3.7017 4.698 0.93889999 0.0060999999
-3.64745 4.6628499 0.93944997 0.0048750001
-3.4870501 4.6150999 0.94749999 0.0049999999
3.5770409 4.6338091 0.94833201 0.1469339
-4.3292999 4.7695999 0.94155002 0.01035
-3.7119 4.7953 0.92460001 0.0055999998
-3.6701667 4.7344337 0.92330003 0.0054666665
-3.4140749 4.7884998 0.95596242 0.042549998
-3.3688898 4.7865 0.94977313 0.038467959
-3.2508588 4.7488513 0.9390536 0.11030747
-3.1541762 4.7321963 0.92409706 0.14753479
-3.0504756 4.7313156 0.92053539 0.16103075
-2.948633 4.7328267 0.92190599 0.16871344
-2.8502359 4.7329788 0.92216563 0.17884327
-2.7493079 4.7322893 0.92168272 0.18140532
-2.6509604 4.7325168 0.92150241 0.18598254
-2.5495286 4.7294893 0.92162931 0.19284709
-2.4493504 4.7297435 0.92250592 0.19971445
-2.3557391 4.7417536 0.93045574 0.1764088
-2.252636 4.7274227 0.92143136 0.21202582
-2.152164 4.7330589 0.92592418 0.17354257
-2.0512867 4.7298632 0.92269766 0.1605109
-1.9490945 4.7297826 0.92139333 0.1603924
-1.848972 4.7318501 0.92064035 0.15949887
-1.7500848 4.7362723 0.92035633 0.15341154
-1.6524206 4.7374592 0.91917807 0.15400822
-1.5475433 4.7334585 0.92006207 0.16778108
-1.4500027 4.7310662 0.92127734 0.16521466
-1.3509037 4.7340584 0.92061102 0.14921921
-1.2840652 4.7444644 0.91370428 0.13221739
0.67374998 4.7981501 0.98890001 0.028200001
0.9701218 4.7957563 0.98332602 0.024047825
1.0501224 4.7950392 0.97619754 0.030812502
1.1882999 4.7968998 0.99195004 0.028200001
1.2112499 4.7989502 0.99230003 0.039225001
1.3361931 4.7922254 0.96595579 0.042337213
1.4583436 4.7906289 0.95553291 0.041699238
1.5497379 4.7905707 0.95336473 0.049817741
1.6536868 4.7914758 0.95272607 0.037839126
1.7255592 4.785408 0.94454664 0.047084495
1.9923668 4.7936711 0.95886254 0.030400001
2.0400145 4.7851152 0.95303446 0.042538464
2.1550798 4.7793155 0.94678998 0.034011398
2.2515898 4.7857914 0.94907337 0.047558449
2.3276522 4.7902069 0.95698988 0.042238381
2.4356999 4.7955999 0.93290001 0.0239
2.5483129 4.7829447 0.94853199 0.19903077
2.6484895 4.7784743 0.94712931 0.22951931
2.7479885 4.7754498 0.94822109 0.22895938
2.8485892 4.7731614 0.94997793 0.21723442
2.9485216 4.7700424 0.94972789 0.20205036
3.0480239 4.7682304 0.94846016 0.19133785
3.1497214 4.768651 0.95179361 0.18048944
3.250576 4.7698793 0.95125127 0.18124928
3.3494112 4.771584 0.95111984 0.17708853
3.4107242 4.7752662 0.95005709 0.13573807
3.5932 4.7203002 0.9641 0.087200001
3.6814232 4.781477 0.95046532 0.50871921
-4.3311 4.8379998 0.93480003 0.052999999
-3.67345 4.8928499 0.92474997 0.0044999998
-3.4430499 4.8584499 0.9795 0.0091500003
-3.3263283 4.8023863 0.92205715 0.042057145
-3.2532451 4.8062782 0.94946897 0.042628571
-3.144979 4.8271351 0.95423627 0.04541355
-3.0373154 4.8419528 0.95314968 0.04375359
-2.9552062 4.8403764 0.95336032 0.050218076
-2.8477483 4.8146396 0.95574778 0.046849567
-2.7606366 4.8532453 0.95176476 0.048617274
-2.6474202 4.8171339 0.95469612 0.044810232
-2.5403328 4.8170485 0.95295763 0.046382476
-2.4557319 4.8171005 0.9531824 0.046757516
-2.3529675 4.8125448 0.95060259 0.038205262
-2.2488647 4.8483949 0.95182413 0.050530434
-2.1657944 4.811295 0.95020741 0.037599996
-2.0566411 4.840981 0.95650434 0.025547827
-1.9456455 4.8137097 0.94921815 0.029453028
-1.8460457 4.8145499 0.95299721 0.037417095
-1.7549758 4.8188238 0.95435882 0.036595333
-1.6755177 4.8205314 0.95602334 0.044200007
-1.5365 4.8527002 0.91245002 0.10545
-1.48735 4.8166504 0.91139996 0.1061
-1.3642668 4.8097997 0.91659999 0.097566664
-1.2916501 4.8147497 0.91009998 0.105
0.46756673 4.8449645 0.95059091 0.048418183
0.54138356 4.8712425 0.94994748 0.058282524
0.64749634 4.8267908 0.95039254 0.029924992
0.73819393 4.838017 0.94994575 0.045139633
0.85035133 4.8499856 0.95277929 0.039670471
0.95373636 4.8266292 0.94159985 0.025070911
1.0710157 4.8364 0.94242233 0.043521009
1.1553508 4.8272295 0.94830137 0.020598587
1.2513778 4.816915 0.94955868 0.048525322
1.3521484 4.8177767 0.94360548 0.034688164
1.4491951 4.8028107 0.91135007 0.034220003
1.5560286 4.8016281 0.90832859 0.059857141
1.6453125 4.8064523 0.93591243 0.041093152
1.7766211 4.8293877 0.94938105 0.04683375
1.8490008 4.8337359 0.94978178 0.051411062
1.9355094 4.8311481 0.94653529 0.041475784
2.0052001 4.8024001 0.90736669 0.066100001
2.2934 4.8003998 0.90130001 0.058600001
2.3567555 4.8474331 0.93681663 0.099022232
2.4912 4.8882337 0.95030004 0.20206666
2.5034933 4.8178 0.94948679 0.095099993
3.4547999 4.8193998 0.97469997 0.15090001
3.5050001 4.8698001 0.96560001 0.1821
3.6815171 4.8521786 0.95107794 0.52288413
-4.1198335 4.9709663 0.95526665 0.1237
-4.0374665 4.9663005 0.94269997 0.12539999
-3.9489498 4.9672399 0.94090003 0.14737001
-3.8381858 4.9592714 0.96421421 0.15778573
-3.7471778 4.9650712 0.95346075 0.53261083
-3.6509337 4.9646659 0.94953334 0.59618729
-3.5677433 4.9641385 0.95006925 0.49020007
-3.4672 4.9369001 0.92629999 0.025900001
-1.6272033 4.9383268 0.94417667 0.19159998
-1.5475718 4.9446983 0.94958979 0.48789912
-1.4514232 4.9466543 0.95065016 0.48851126
-1.3526931 4.9463291 0.95079017 0.46683073
-1.2517556 4.9460287 0.9513368 0.46225926
-1.1524756 4.9458055 0.94882864 0.45125437
-1.0519109 4.9458594 0.94894797 0.43333974
-0.95007342 4.9456615 0.948928 0.41408491
-0.84855181 4.945066 0.949301 0.40609798
-0.75152338 4.9447212 0.9499675 0.39706421
-0.65491068 4.9438143 0.95115572 0.38172737
-0.55172586 4.9427886 0.94855934 0.37323052
-0.45098394 4.9417186 0.95068944 0.36575592
-0.35140502 4.9400926 0.9479565 0.35827872
-0.24988598 4.9389572 0.94989103 0.35707897
-0.14786762 4.9375796 0.94912982 0.35709253
-0.046927959 4.9365554 0.94999373 0.35365698
0.051709078 4.9359212 0.95024663 0.35636467
0.15486115 4.9348254 0.94997776 0.36651447
0.25269622 4.9340696 0.95131058 0.38787034
0.34204587 4.9330854 0.95086235 0.35201806
0.45002121 4.9298854 0.9514637 0.29438788
0.55258948 4.9253049 0.95251065 0.27290526
2.3722181 4.9214048 0.95065457 0.48668635
2.4500842 4.9239688 0.95071304 0.57022393
2.5168533 4.9243326 0.9505111 0.51699811
3.4758 4.9156265 0.95384002 0.47671336
3.5555623 4.9145865 0.95072031 0.41618115
3.6389375 4.9127665 0.94926667 0.46937048
-1.7259334 5.0506997 0.9618333 0.2728667
-2.5718 5.2621002 0.94080001 0.0027000001
-3.4577999 -3.4296398 1.04828 0.14335999
-3.3538201 -3.4310997 1.05602 0.15371999
-3.2448614 -3.4312265 1.0484384 0.37113845
-3.1495073 -3.4311306 1.0508692 0.26162308
-3.0554168 -3.4319832 1.05035 0.17651667
-2.9492202 -3.43171 1.05688 0.16815999
-2.8612936 -3.4317749 1.0463625 0.21347499
-2.7531476 -3.4321306 1.0492129 0.21274783
-2.6515176 -3.4323173 1.0492218 0.22462176
-2.5439866 -3.4324737 1.0538127 0.23081291
-2.433882 -3.4332051 1.0485332 0.31666923
-2.3438787 -3.4336393 1.0505641 0.35287926
-2.2445295 -3.4347165 1.0467272 0.38030136
-2.1472588 -3.4358923 1.0482569 0.37784404
-2.0525634 -3.4363954 1.050525 0.37152502
-1.9463946 -3.4365723 1.0491844 0.36365309
-1.8460921 -3.4371016 1.0499669 0.37332997
-1.7495681 -3.4370801 1.0485446 0.37222227
-1.6500064 -3.4370296 1.051499 0.38130814
-1.5497955 -3.4373052 1.0498021 0.37482607
-1.4496766 -3.4378726 1.0482177 0.36902952
-1.351385 -3.4387009 1.0521616 0.37559545
-1.254106 -3.4388406 1.0503306 0.40097255
-1.1470475 -3.4393857 1.0557523 0.42592132
-1.0631539 -3.4393806 1.0504228 0.4467923
2.0729799 -3.41236 1.0516601 0.23038001
2.1658287 -3.4540575 1.0527714 0.16147144
2.2553 -3.4436665 1.0358334 0.074933343
2.3619335 -3.4428999 1.0556 0.067000002
2.4658668 -3.4132664 1.0443333 0.03736667
3.1781287 -3.4639573 1.0512 0.3234143
3.2307446 -3.4562697 1.05143 0.30562499
3.4064 -3.4612 1.0879 0.14920001
-3.2571404 -3.3431439 1.0507123 0.22309065
-2.4301 -3.3701 1.0199 0.1904
-1.12525 -3.3558002 1.0197999 0.074950002
-1.0295293 -3.3511951 1.0560677 0.18531622
-0.95146048 -3.3439815 1.0596399 0.15641439
-0.85085911 -3.3419926 1.0570322 0.20081399
-0.75685042 -3.3416445 1.0530276 0.21199568
-0.64963084 -3.340188 1.0516089 0.26601237
-0.55001205 -3.3417943 1.0525056 0.22516483
-0.45095289 -3.3423886 1.0490251 0.24267745
-0.34998253 -3.341661 1.0504013 0.22154751
-0.24870004 -3.3381765 1.0489521 0.23853664
-0.15045981 -3.3378494 1.0498782 0.28459564
-0.053317506 -3.338834 1.0495386 0.26064876
0.049602237 -3.3402326 1.0500966 0.21469106
0.14827143 -3.3414838 1.0497173 0.25768775
0.24962136 -3.3403525 1.0495901 0.35587296
0.34877706 -3.3402953 1.0511867 0.29819426
0.45270109 -3.3417871 1.050374 0.2413761
0.55420101 -3.3379862 1.0504361 0.25302187
0.65199757 -3.337626 1.0492814 0.31732902
0.7492699 -3.3352909 1.0506184 0.37041843
0.85222799 -3.3339517 1.0489687 0.31438792
0.95092803 -3.3375416 1.0477093 0.23116767
1.0531099 -3.3395495 1.0499175 0.28331369
1.1519166 -3.3394027 1.0487556 0.32076514
1.2471818 -3.3368273 1.0507053 0.30360207
1.3480151 -3.335923 1.0491592 0.265201
1.4510592 -3.3416507 1.0500782 0.27357805
1.548269 -3.346941 1.0493058 0.27024049
1.6479665 -3.3481805 1.0516403 0.29070556
1.7529267 -3.3448479 1.0489043 0.2868256
1.8480043 -3.3422484 1.0479803 0.26392069
1.9461964 -3.3408365 1.0509093 0.19020222
2.0456769 -3.323179 1.0506582 0.11285587
2.1438591 -3.3094645 1.0493773 0.077222474
2.2454569 -3.3114207 1.0497949 0.082701363
2.3458967 -3.3139615 1.0503857 0.071414277
2.4525998 -3.3146865 1.0508891 0.066908553
2.5572777 -3.3166733 1.0511533 0.06974414
2.6543262 -3.3142834 1.0454313 0.067293443
2.7530851 -3.3152525 1.0488659 0.059954721
2.8459096 -3.3136959 1.0513119 0.062035285
2.9416511 -3.3142209 1.0518616 0.056678727
3.0110633 -3.3111684 1.0502728 0.077131823
3.2206914 -3.3426106 1.049065 0.44152802
-3.2555351 -3.2488458 1.0539161 0.23601617
-1.0175307 -3.2486076 1.0452769 0.071684614
-0.95321524 -3.2462873 1.0543596 0.16688645
-0.83679926 -3.2479482 1.0494641 0.16844349
-0.72965014 -3.251724 1.0309265 0.10676
-0.65869999 -3.2846999 1.0041 0.14579999
2.0553999 -3.2997 1.0785 0.052499998
3.220994 -3.2501557 1.0504705 0.47849637
-3.2561646 -3.1375358 1.0477201 0.13942799
-3.1712999 -3.1966 1.0274 0.080300003
-2.8067334 -3.151933 1.0472001 0.093099989
-2.7646098 -3.13152 1.03809 0.10618
-1.0258358 -3.1440358 1.0406572 0.081799999
-0.95552766 -3.1371164 1.053121 0.15206899
-0.84242797 -3.1376176 1.0472094 0.15463652
-0.74701577 -3.1535604 1.0374607 0.062099997
3.2203765 -3.1473281 1.0479788 0.48803651
-4.384171 -3.012686 1.0398428 0.042414282
-3.2558329 -3.044019 1.0525448 0.16570832
-3.1533251 -3.0829999 1.0453 0.053725
-3.0244386 -3.0177462 1.0509731 0.065419234
-2.9533021 -3.0221164 1.0486612 0.095147386
-2.8791363 -3.0156 1.0405726 0.073709086
-2.7354963 -3.0110371 1.0362296 0.11690371
-2.6511939 -3.0188446 1.0507611 0.089306943
-2.5452144 -3.014349 1.046656 0.12227804
-2.4533057 -3.0100975 1.0468731 0.089302696
-2.3804095 -3.0189955 1.0518335 0.11596666
-1.0193599 -3.0460041 1.0494521 0.12205199
-0.95784324 -3.0503519 1.0477399 0.17079209
-0.85078716 -3.064317 1.0429935 0.15621611
-0.74093562 -3.0525227 1.0288709 0.10349999
3.219471 -3.0457234 1.0514352 0.49685612
-4.3688703 -2.9515283 1.0493933 0.28888997
-4.2557993 -2.9687264 1.0543543 0.21122284
-4.1511655 -2.9670885 1.0467687 0.21692571
-4.0457711 -2.9657242 1.0517246 0.23223175
-3.9447224 -2.9643612 1.0503584 0.22777224
-3.8526115 -2.9633856 1.0481555 0.23341942
-3.7573574 -2.9624579 1.049191 0.25274441
-3.6499727 -2.962096 1.0493305 0.23490816
-3.5502379 -2.9615037 1.048319 0.23087357
-3.4529555 -2.9609323 1.0500082 0.25517347
-3.3511555 -2.960443 1.0499554 0.24607304
-3.2646484 -2.9674268 1.0471247 0.19553903
-2.8322122 -2.9732969 1.054103 0.098233342
-2.7491865 -2.9632862 1.0584755 0.10483766
-2.6954 -2.9853332 1.0942665 0.092633329
-2.5643895 -2.9970605 1.0490215 0.093410723
-2.4539883 -2.996897 1.0498757 0.10013941
-2.3976705 -2.9954708 1.050794 0.091976464
-1.0222875 -2.9561999 1.0409917 0.087991677
-0.96390134 -2.9505637 1.0435125 0.1794782
-0.86053443 -2.9495904 1.0464282 0.10250625
-0.74022722 -2.9487789 1.0264574 0.109
3.2186899 -2.9462168 1.049312 0.50096303
-4.3793101 -2.8546839 1.0483999 0.34806001
-1.0214721 -2.8488364 1.045308 0.097780019
-0.96796918 -2.8493297 1.0395941 0.17579645
-0.8576743 -2.8554657 1.0415114 0.10495144
-0.7476334 -2.8557003 1.0281234 0.10268001
3.217783 -2.8447862 1.0490117 0.51958042
-4.3513279 -2.7492821 1.0517001 0.27926961
-4.2994499 -2.7526999 1.0352499 0.26879999
-1.0271553 -2.7491448 1.0396395 0.090039469
-0.96787035 -2.7508407 1.0364882 0.18267977
-0.85223997 -2.7468486 1.0364314 0.11294571
-0.74925947 -2.7525687 1.0249718 0.11823435
3.2171414 -2.7465692 1.0504494 0.51510102
-4.3405104 -2.6553202 1.048764 0.27820599
-1.0235486 -2.6475 1.0391121 0.09377563
-0.96894681 -2.6502814 1.0322621 0.18546711
-0.85638529 -2.6495001 1.0355294 0.12444412
-0.75187361 -2.648952 1.0244156 0.11741053
3.2164414 -2.646682 1.0502193 0.53027052
-4.3261776 -2.5521808 1.0511023 0.29166383
-1.0271297 -2.5519297 1.03565 0.099874996
-0.96814817 -2.5506287 1.0279248 0.18242128
-0.85463119 -2.5507355 1.0306667 0.12897779
-0.74763101 -2.5558827 1.0202621 0.12508276
3.2158663 -2.5499294 1.0503895 0.53076631
-4.3244252 -2.4512198 1.0509601 0.29857403
-1.0289713 -2.4535844 1.0343614 0.10344423
-0.97166055 -2.4496281 1.0247722 0.19236206
-0.862517 -2.4421792 1.0278471 0.14858113
-0.75014418 -2.4460468 1.020294 0.11960883
3.2151761 -2.4504998 1.0498775 0.52305716
3.6282499 -2.4396501 1.05715 0.21235001
-4.3229036 -2.3461995 1.0490963 0.28649443
-1.0276599 -2.3504417 1.031134 0.10737801
-0.96669424 -2.3522787 1.0230895 0.17727907
-0.8590675 -2.3470814 1.0251523 0.18599427
-0.75313681 -2.349705 1.0171157 0.1287763
3.2143943 -2.3502386 1.0509989 0.53630102
3.56515 -2.32885 1.0173 0.13685
3.6280842 -2.3342474 1.050658 0.45854208
-4.3214812 -2.2486477 1.0487031 0.31368354
-1.028011 -2.250231 1.028111 0.10607819
-0.97053808 -2.2531133 1.020934 0.18295261
-0.85760164 -2.2524202 1.0235962 0.18392566
-0.75384504 -2.2496824 1.017175 0.13059002
3.213711 -2.2504525 1.0492806 0.53138471
3.5534999 -2.2263 1.0176667 0.087366663
3.6234479 -2.2738431 1.0550621 0.36748576
-4.3200355 -2.1512387 1.0488242 0.31567264
-1.026502 -2.1479104 1.0262645 0.10443751
-0.96665543 -2.1477487 1.0221908 0.1582921
-0.85614318 -2.1487756 1.0240424 0.17115332
-0.75825554 -2.1507156 1.0153089 0.1248711
3.2239377 -2.1759152 1.0503964 0.39900848
3.4976201 -2.1700799 1.0753 0.021100001
3.5202785 -2.1404667 1.0501001 0.020373812
-4.3183198 -2.0507042 1.0504183 0.32141408
-1.0291278 -2.0543978 1.0237373 0.11059068
-0.9635402 -2.0494921 1.0189435 0.1561611
-0.8559041 -2.0498257 1.0233203 0.16233388
-0.75253117 -2.0451002 1.0151727 0.14536881
3.5321283 -2.0480843 1.0507596 0.022237834
-4.316812 -1.9532919 1.0513469 0.32606566
-1.0198276 -1.9523206 1.0243207 0.099175856
-0.95912725 -1.9483253 1.0181421 0.1494305
-0.85175955 -1.9508266 1.0222487 0.16412842
-0.75165933 -1.9525911 1.0133227 0.14586136
3.5312443 -1.9542624 1.0519785 0.022985134
3.6024001 -1.9022 1.0445 0.015900001
-4.3152924 -1.8548893 1.0514011 0.3384729
-1.1045715 -1.8289715 1.0423858 0.044157144
-1.0303565 -1.8550333 1.0202923 0.088033319
-0.9593094 -1.8530616 1.02064 0.11151335
-0.8471967 -1.8548284 1.0219553 0.12923296
-0.74997813 -1.8517041 1.0135875 0.12523817
3.48311 -1.816385 1.0527551 0.026570002
3.5449622 -1.8482895 1.0536203 0.025024999
3.6131001 -1.89606 1.05362 0.024739999
-4.3137112 -1.7504309 1.0568384 0.35067651
-4.271975 -1.7404501 1.0218874 0.034912501
-1.0218749 -1.7527833 1.0166192 0.11260001
-0.95890325 -1.7465955 1.0156616 0.1404489
-0.85107964 -1.7486718 1.0205786 0.1342631
-0.75165904 -1.7496032 1.0115439 0.13235199
3.4782667 -1.7505282 1.0490719 0.021023078
3.5420361 -1.7486886 1.052142 0.026043659
3.6047332 -1.7217001 1.0158 0.019933334
-4.3123193 -1.644932 1.0514256 0.26104489
-4.2826252 -1.6817 1.031625 0.049849998
-1.1582122 -1.6727815 1.0491539 0.17006619
-1.0223304 -1.6509959 1.0160567 0.099034779
-0.9559769 -1.6491991 1.0138621 0.13842407
-0.85036904 -1.6524464 1.0189326 0.15105091
-0.74482876 -1.6504669 1.0110265 0.15632766
3.4899499 -1.6931751 1.0489 0.01455
3.5562449 -1.6536691 1.0502286 0.024816088
3.624665 -1.6371549 1.048695 0.015375
-4.3326263 -1.5509179 1.0502231 0.37920502
-1.0155865 -1.5520838 1.0124702 0.1215865
-0.95522845 -1.5480119 1.0131962 0.13184808
-0.84366035 -1.548982 1.020279 0.16724187
-0.74228346 -1.5507647 1.0116522 0.18049081
3.5835555 -1.5483863 1.0494496 0.022398634
3.6188323 -1.5522038 1.0497342 0.026777998
-4.3443236 -1.4544227 1.0497543 0.36874947
-4.2923002 -1.4095 1.00895 0.30430001
-1.1447716 -1.4215513 1.0485756 0.15049729
-1.0132934 -1.4522468 1.0090098 0.12973334
-0.95508403 -1.4499483 1.0111872 0.12725982
-0.84115797 -1.4508985 1.0189114 0.17393908
-0.73354769 -1.4500992 1.0118934 0.18805139
3.5629921 -1.4486222 1.0537395 0.020205103
3.6066959 -1.4319639 1.0443001 0.022987999
-4.3658943 -1.3568449 1.0504041 0.46547893
-2.7594125 -1.3456624 1.0084624 0.020912502
-1.0076572 -1.3645357 1.0037286 0.15696429
-0.95757216 -1.3584753 1.0083011 0.12987655
-0.84260529 -1.3453088 1.0142679 0.16247243
-0.73113704 -1.3622808 1.0084348 0.16604044
-0.69796664 -1.3339667 1.0010333 0.29466668
3.4855909 -1.3444093 1.0572261 0.018674076
3.517102 -1.3591852 1.0432363 0.022787269
-4.3754201 -1.2501388 1.0506262 0.49003631
-2.7688997 -1.2531427 1.0098286 0.011314286
-0.84490001 -1.29875 1.0021 0.12645
3.4929075 -1.2816154 1.0576308 0.013630769
3.5073938 -1.2622188 1.035925 0.015456249
-4.3756204 -1.1452155 1.0508885 0.52417243
-2.7605579 -1.1398842 1.0101212 0.016894737
2.4430771 -1.1155148 1.0506513 0.2221476
2.5536165 -1.1207794 1.0509218 0.27748629
2.6550295 -1.1206053 1.0479034 0.27024388
2.7524004 -1.1206255 1.0495473 0.26104182
2.8520863 -1.1204791 1.0497844 0.24722114
2.9497821 -1.1202124 1.0497077 0.24178502
3.0497625 -1.1201084 1.0521103 0.22623752
3.1566999 -1.1200757 1.0529027 0.21845946
3.2526083 -1.120064 1.0487751 0.2128889
3.3554089 -1.1196427 1.0483543 0.19613715
3.5939717 -1.1577845 1.0585718 0.022496875
3.6048443 -1.1728224 1.0189222 0.023366667
-4.375308 -1.0513011 1.0530962 0.54172206
-2.8271 -1.0023 1.0081 0.0082999999
-2.7777932 -1.05975 1.0123357 0.013157144
2.3958035 -1.0578243 1.0515687 0.22141147
2.4054513 -1.0368662 1.0479572 0.26672146
3.5821831 -1.0355333 1.0367166 0.026033333
3.637311 -1.0521001 1.0480406 0.020757444
-4.3749604 -0.9537735 1.0500098 0.54167157
-3.0175169 -0.91506124 1.0518278 0.2414
-2.810575 -0.93005002 1.0073 0.015425
-2.7885602 -0.95363998 1.00682 0.0186
2.4105344 -0.95053899 1.0509727 0.31087404
-4.3743248 -0.85220623 1.0496467 0.54297596
-3.0124497 -0.85170513 1.0537208 0.31484312
-2.82775 -0.88725001 1.0028501 0.017200001
2.4257681 -0.84932804 1.048812 0.30908221
-4.3733206 -0.74998045 1.0506356 0.58426511
-3.0101445 -0.75635505 1.0510134 0.29091328
2.4411647 -0.74929535 1.0498775 0.30949241
-4.3709555 -0.65107143 1.0485003 0.53835386
-3.0078108 -0.65289265 1.049528 0.28090182
2.456336 -0.64977419 1.0506799 0.30315033
-4.3646955 -0.54993302 1.0498351 0.52895534
-3.0053947 -0.54353392 1.0495442 0.25898138
2.4719682 -0.54957289 1.0498348 0.29875961
-4.3627715 -0.45123199 1.0536915 0.5235765
-3.002943 -0.44755551 1.0485831 0.27348521
2.4873741 -0.44985136 1.0492909 0.29317886
-4.3624315 -0.34984231 1.0509174 0.53122926
-3.90745 -0.322725 1.00245 0.0539
-3.8985 -0.34935001 1.0002 0.046500001
-3.0010271 -0.36560443 1.0521646 0.28342444
-2.9995201 -0.31581002 1.047505 0.21177001
2.4972432 -0.38211027 1.0551621 0.26531208
2.5055945 -0.33237651 1.0487537 0.28550243
-4.3619113 -0.24729593 1.0503362 0.54152721
-3.9065001 -0.26058337 1.00385 0.058133338
-3.8896999 -0.24168335 1.0017166 0.065499999
-3.0000999 -0.2958 1.0631 0.24779999
-2.9979355 -0.24696125 1.0480548 0.26145643
2.518646 -0.24736173 1.0504229 0.26727468
-4.3605566 -0.14924304 1.0507377 0.52989787
-3.87602 -0.184 1.0020201 0.053479999
-2.9954073 -0.14773175 1.0494555 0.24534127
2.5345182 -0.14819551 1.0499775 0.23158842
-4.3603191 -0.050130486 1.0515238 0.52998787
-2.9926691 -0.04574348 1.0499436 0.22073042
2.5738702 -0.089467801 1.0488784 0.12563334
2.6504502 -0.075834043 1.0495503 0.2941891
2.7505724 -0.063287772 1.0500888 0.32825968
2.8486085 -0.050977338 1.0507046 0.36479595
2.9481156 -0.038381092 1.050567 0.36186212
3.0478666 -0.025921742 1.051049 0.35529071
3.1502357 -0.013266258 1.0505452 0.36066756
3.2284927 -0.00387229 1.0468987 0.37159038
-4.3594546 0.052638456 1.0510011 0.55915058
-2.9901378 0.049927864 1.051254 0.2412131
3.2768457 0.003125316 1.0539089 0.33868235
3.3521888 0.012608782 1.0495113 0.35399392
3.4489527 0.024643885 1.0508202 0.35137045
3.5176039 0.048507992 1.0507563 0.25952402
3.6210997 0.042866666 1.0353333 0.14316666
-4.3582158 0.15044715 1.0530736 0.52257937
-2.9873247 0.15219502 1.0482668 0.24197169
3.5197175 0.1496796 1.051948 0.13630509
-4.3581595 0.24875309 1.0493125 0.50824982
-2.9847579 0.24976285 1.0507419 0.24462254
3.5241475 0.25370568 1.0491762 0.13906415
-4.3577638 0.3478564 1.0493371 0.47989047
-2.9818773 0.3528015 1.049 0.21120299
3.5269432 0.34963179 1.0440288 0.15493788
-4.3572979 0.44906491 1.0499166 0.49505726
-2.9791453 0.456734 1.049595 0.23505765
3.5301197 0.44892052 1.0495396 0.16203073
-4.355855 0.55022311 1.051039 0.46175808
-2.9764297 0.55593652 1.0492285 0.21419366
3.5332108 0.54948884 1.0494723 0.15440975
-4.3551679 0.650877 1.051861 0.45436087
-2.9727046 0.65801084 1.0499203 0.23756404
3.5382633 0.64791608 1.0487038 0.15782532
-4.3543482 0.75083566 1.0488071 0.43211234
-2.9771473 0.76253921 1.0462229 0.22352378
3.5445962 0.74931431 1.0486442 0.15551168
-4.3528848 0.84984517 1.0537249 0.45572731
-3.0094752 0.86804843 1.0508453 0.22066839
-2.9950392 0.81967545 1.0501056 0.21840189
3.5502636 0.84855485 1.0497872 0.15456899
-4.3517551 0.94931334 1.05211 0.44662011
-3.0357995 0.95327252 1.0497683 0.22034001
3.5559893 0.94468492 1.0520821 0.14885886
-4.3506303 1.0504223 1.0519519 0.39919573
-3.0655115 1.0497094 1.0503054 0.23163947
3.5536711 1.0476506 1.050967 0.14057809
-4.3451252 1.1509577 1.0536546 0.43628228
-3.1053607 1.1781883 1.0489949 0.23488165
-3.0891728 1.1262404 1.0507431 0.22645445
3.5512195 1.1495409 1.0492083 0.14379726
-4.3427086 1.2499694 1.0536531 0.41960311
-3.1263406 1.2472942 1.0501032 0.23399018
3.5475113 1.2530637 1.0502319 0.13458297
-4.3422008 1.3537939 1.055023 0.39419129
-3.157011 1.3466394 1.0511576 0.24517483
3.5456645 1.3539406 1.0507998 0.13281311
-4.3559837 1.4522238 1.0524466 0.49327841
-3.2032332 1.4964666 1.0469333 0.33237779
-3.187037 1.4444518 1.050367 0.24595119
3.544606 1.4524765 1.0497669 0.13869148
-4.3555365 1.5479947 1.0519465 0.49559996
-3.2194965 1.5502286 1.0480597 0.26122236
3.5441976 1.553278 1.0496565 0.14647476
-4.3547263 1.6489275 1.052936 0.5031383
-3.250859 1.6523622 1.0504369 0.27659699
3.5442684 1.6487561 1.0504746 0.14791377
-4.3538547 1.7540845 1.0537084 0.51058394
-3.2816854 1.752791 1.0497398 0.30282253
3.5435741 1.7389657 1.0495356 0.13842185
-4.3529668 1.8514543 1.0530322 0.52424592
-3.314348 1.8587908 1.0507268 0.31062683
-3.2983055 1.8066632 1.0517528 0.26750529
3.4426315 1.8852253 1.0482341 0.051799998
3.5359402 1.8506335 1.0514227 0.09391252
-4.3516989 1.951452 1.0522594 0.53647125
-3.3431871 1.9535191 1.0500351 0.31497893
3.4408336 1.9523561 1.0492991 0.043880787
3.5717502 1.91295 1.0748 0.060650002
3.6258998 1.9238501 1.01765 0.12575001
-4.3502789 2.0534494 1.0521054 0.53353548
-3.3738766 2.0527408 1.0510234 0.31794992
3.4910979 2.0195704 1.0518386 0.05331137
3.513566 2.0665812 1.0495957 0.04544428
3.6612999 2.0139 1.0391001 0.072800003
3.7005999 2.0537 1.0088 0.1304
-4.3487897 2.1461322 1.0510484 0.55856264
-3.4095101 2.1688354 1.0497432 0.31957522
-3.3938746 2.1179943 1.0514219 0.36391273
3.4939003 2.1909223 1.0480223 0.037433337
3.5231323 2.1428988 1.0493373 0.031119183
-4.3466339 2.2474368 1.0521599 0.56737852
-3.4271224 2.2272036 1.0502921 0.32361606
3.4949844 2.2371459 1.0488399 0.045550004
3.5061977 2.2505968 1.0519308 0.037726831
-4.3450251 2.3475854 1.0512725 0.56402451
3.4852047 2.3553133 1.0492173 0.048480917
3.5330002 2.3414068 1.0488801 0.016573334
-4.343802 2.4456327 1.0499516 0.58321375
3.4950097 2.4297109 1.0611029 0.047542103
3.507129 2.4734128 1.0381316 0.046910003
-4.3436346 2.5468857 1.0496436 0.57111275
3.4950852 2.5874333 1.0503477 0.0361
3.5189278 2.5376084 1.0490659 0.040545654
-4.3433061 2.6497259 1.0497897 0.6132611
3.4934316 2.6463311 1.0533688 0.037126891
3.5018456 2.6320913 1.0162364 0.046318177
-4.3427052 2.7467382 1.0500594 0.60628939
3.48929 2.7277896 1.050898 0.041379582
3.5478547 2.7699983 1.0423433 0.050168969
-4.34199 2.8458261 1.0514479 0.60486352
3.4981 2.8829999 1.0777251 0.027150001
3.5166671 2.8594179 1.0522097 0.037956987
-4.3413043 2.9489472 1.050395 0.59908891
3.49806 2.9491069 1.0702266 0.038651112
3.5038431 2.9471016 1.0410647 0.048952948
-4.3409038 3.047152 1.0491472 0.62463146
3.4981501 3.0035 1.05195 0.020500001
3.5222797 3.0512826 1.0487803 0.048217647
-4.3404536 3.1452971 1.0494145 0.59918094
3.5405643 3.1485908 1.0512631 0.042167109
-4.3402338 3.2458477 1.0502741 0.62008744
3.4922547 3.2241409 1.0697047 0.030463636
3.5126159 3.24125 1.0422341 0.034234095
-4.3391719 3.3510201 1.0505068 0.61425924
3.4973145 3.3564146 1.0846572 0.019357143
3.5087676 3.3604083 1.0473557 0.035103571
-4.3382926 3.4538267 1.0500972 0.62534785
3.5205765 3.4296625 1.0440928 0.042830952
-4.3379593 3.5520699 1.0504559 0.63794953
-0.1491383 3.5841467 1.0268469 0.20630422
-0.046293743 3.5880003 1.0077187 0.076081254
0.043740001 3.590987 1.0062867 0.068746671
0.16238572 3.5879238 1.0148381 0.13547143
0.20274998 3.5905001 1.0212417 0.19874167
3.5843232 3.5861795 1.0444423 0.036053333
3.60641 3.5456996 1.0533793 0.047539741
-4.3377471 3.6494665 1.0503187 0.58843887
-0.20908612 3.6543438 1.0283304 0.44532502
-0.16641876 3.6438229 1.0573919 0.21958886
-0.064300001 3.6085999 1.0006 0.047600001
0.041449998 3.6063499 1.004325 0.052249998
0.19074892 3.6390331 1.0543312 0.26362702
0.22886281 3.6626625 1.0456752 0.25497255
3.5320678 3.6432235 1.0483766 0.040146917
-4.3378072 3.7497692 1.0505058 0.62784481
-0.20333333 3.7053001 1.0498667 0.2818
-0.18452726 3.7128999 1.0788498 0.36138183
0.23179741 3.7177844 1.066836 0.34857184
3.5775239 3.7723241 1.0479627 0.20706625
3.6659334 3.7549198 1.0534931 0.47675329
-4.3375545 3.8529077 1.0491765 0.62776107
3.5753572 3.8518596 1.0509083 0.2150653
-4.3366585 3.9529033 1.0502796 0.60698295
-3.9856 3.9969001 1.0346 0.0034
-3.8323669 3.9942 1.0671 0.0040666666
-3.6421499 3.9942498 1.04875 0.0044499999
-3.5273499 3.9993501 1.02245 0.0044
3.5727558 3.9506781 1.0517826 0.20206104
-4.3328848 4.033844 1.0550691 0.47166538
-4.2445817 4.0272913 1.0458366 0.022
-4.1468329 4.0329499 1.0332166 0.0030499997
-4.0439715 4.0209284 1.0365571 0.0032000002
-3.9463441 4.0144997 1.0441778 0.0035999997
-3.8434703 4.0195823 1.0452942 0.0035823528
-3.7472248 4.0150185 1.0450063 0.0042499998
-3.6419199 4.0145135 1.0501733 0.00446
-3.5335822 4.0369744 1.0530001 0.011128203
-3.4993999 4.0819998 1.0495 0.0038999999
3.5718572 4.0507998 1.0502185 0.18781538
-3.5166774 4.1431732 1.0574231 0.020749999
3.5718982 4.1512165 1.0496835 0.18209489
-3.6526334 4.2609334 1.0123333 0.015533333
-3.5327001 4.2155499 1.04795 0.019749999
-3.4947701 4.2591 1.0758901 0.02256
3.5733171 4.2521372 1.048607 0.17836989
-3.6599998 4.3114333 1.0173334 0.0091333343
-3.5346501 4.3343 1.02925 0.0277
-3.4892912 4.3568363 1.0692272 0.025481818
3.5734525 4.3511467 1.0509746 0.16636609
-3.6565001 4.4025998 1.005 0.0037
-3.4836431 4.4597144 1.0574785 0.018728571
3.5741353 4.4547057 1.0504521 0.16143753
-3.6510999 4.5946002 1.0575334 0.061299998
-3.5176001 4.5403004 1.06745 0.041000001
-3.4810112 4.550406 1.0501834 0.0098722223
3.5768638 4.5508299 1.0506445 0.15936027
-3.5060999 4.6241999 1.0017 0.0041999999
-3.49175 4.6173501 1.05795 0.0053500002
3.5781543 4.6301193 1.0511249 0.14528927
-4.3393002 4.7069998 1.0355 0.041499998
-3.4092858 4.7853856 1.0408429 0.028328571
-3.3650708 4.7824268 1.0461677 0.038316164
-3.2443674 4.7880435 1.0512875 0.037691548
-3.1875782 4.7939191 1.0563905 0.043990631
-2.9001999 4.7996001 1.0297 0.052200001
-2.8569736 4.7971787 1.0750972 0.05332353
-2.7981999 4.7989502 1.0826001 0.050549999
-2.6752801 4.7983699 1.0747601 0.043339998
-2.43225 4.7968335 1.0502499 0.033866666
-2.3748004 4.7937746 1.042745 0.046909805
-2.1608963 4.7952518 1.0532547 0.027635483
-2.0947602 4.7987394 1.0459999 0.016040001
-1.9238402 4.79638 1.0801799 0.01444
-1.8521856 4.7983575 1.0565857 0.025442855
-1.7805001 4.7990336 1.0733666 0.046
-1.6724125 4.79705 1.0669124 0.0303625
0.67830867 4.7928691 1.0530695 0.025199998
0.7115739 4.7940645 1.0634001 0.043165222
0.97119391 4.7878981 1.050643 0.028348979
1.0501729 4.7865038 1.051868 0.038038544
1.1825316 4.7945499 1.055082 0.025659095
1.2234807 4.7935653 1.0579724 0.045298602
1.3439195 4.7840581 1.0520507 0.041377787
1.4579972 4.7766838 1.0484344 0.043249995
1.5434402 4.7772698 1.0454363 0.048561051
1.6550214 4.7827516 1.0506011 0.029315
1.7252134 4.7735467 1.0436423 0.032759994
1.9858716 4.7882791 1.0512465 0.021435713
2.0432358 4.7687478 1.049106 0.041510534
2.1530631 4.761322 1.0492861 0.035099998
2.2534997 4.7771001 1.044669 0.038443338
2.3305788 4.783926 1.0496786 0.036717016
2.5478685 4.793972 1.0414665 0.19524997
2.653573 4.7907839 1.0394981 0.24292158
2.7471709 4.7867761 1.0505793 0.22508883
2.8487566 4.78687 1.0499427 0.19364248
2.9506822 4.7882338 1.0485711 0.197625
3.0494046 4.7879219 1.0478253 0.21211189
3.149663 4.7864852 1.0503764 0.20607767
3.2501347 4.7866621 1.0522742 0.19068223
3.3512435 4.7879233 1.050342 0.17456217
3.4098568 4.7888756 1.0547523 0.13153334
3.6847224 4.7830005 1.0496888 0.52505177
-3.6856999 4.8325 1.0565 0.034699999
-3.4521716 4.8496428 1.0401571 0.027414288
-3.2449999 4.8042998 1.002 0.050999999
-3.1400762 4.825963 1.0494583 0.04870655
-3.0356693 4.8419027 1.051003 0.043439809
-2.9657362 4.8494625 1.0508107 0.044151381
-2.8426449 4.8058 1.0412937 0.048155218
-2.7664452 4.8592095 1.0497565 0.048648342
-2.6449311 4.8123484 1.0439824 0.043134917
-2.5477185 4.8231921 1.0504016 0.051455468
-2.4615159 4.8195615 1.0474081 0.049973462
-2.332243 4.8180456 1.0472609 0.020074997
-2.2503428 4.852355 1.0489447 0.047882766
-2.175725 4.8362937 1.0381314 0.042456254
-2.0499902 4.8456392 1.0516403 0.023795156
-1.9426757 4.8088441 1.045686 0.019189656
-1.8382168 4.8076324 1.0445361 0.030958332
-1.7575696 4.8129525 1.0439893 0.035336278
-1.6727332 4.8169017 1.041154 0.045266662
0.3818 4.8989 1.016 0.1218
0.47249666 4.8425217 1.0460408 0.054388136
0.54108173 4.8694072 1.0486381 0.057151917
0.63140553 4.8412542 1.0468075 0.037639622
0.74570477 4.8216782 1.043982 0.042890482
0.85099339 4.8409486 1.0512085 0.043782402
0.94326341 4.8463831 1.05 0.025833331
1.0845013 4.8525977 1.0503961 0.050644744
1.1387476 4.837543 1.0496142 0.019876191
1.2648929 4.8086643 1.0430149 0.048609994
1.3483622 4.8084383 1.0440838 0.021632429
1.6686499 4.8034496 1.0104001 0.028200001
1.7805139 4.8321853 1.0492246 0.043336924
1.8490173 4.8364358 1.0485148 0.051627848
1.9273368 4.8308239 1.0484356 0.040410418
2.3949001 4.8982 1.0043 0.1868
2.5428236 4.8084688 1.0612112 0.195896
2.6394794 4.8022356 1.077371 0.26692498
2.7100668 4.8011999 1.0974333 0.31979999
3.43225 4.8142996 1.0027499 0.070350006
3.6786451 4.850575 1.0506128 0.50789464
-4.2600002 4.9614 1.0755 0.07925
-4.1314602 4.9647999 1.06704 0.22426
-4.0419402 4.9658599 1.0663799 0.19158
-3.931483 4.9651999 1.074325 0.39183334
-3.8429551 4.960495 1.0811901 0.39061999
-3.7471611 4.965291 1.0499957 0.59213495
-3.6521828 4.9654002 1.0493668 0.60056347
-3.5633674 4.9614439 1.052296 0.44876531
-1.7086 4.9134998 1.0867 0.0037
-1.6236699 4.9385643 1.0511565 0.20165217
-1.5453846 4.9450612 1.0511614 0.48013461
-1.4516681 4.9468536 1.0506536 0.49728861
-1.3523186 4.9462991 1.049796 0.47633359
-1.2520506 4.9458528 1.0511452 0.4737038
-1.1525494 4.9458165 1.0496213 0.46270189
-1.0501432 4.9459095 1.0500205 0.44447759
-0.94963485 4.9458203 1.0488267 0.41872057
-0.84899354 4.9452558 1.049444 0.41542479
-0.7518422 4.9448018 1.0495809 0.40129107
-0.65427303 4.9438081 1.0511603 0.3885738
-0.5527603 4.9430671 1.0489882 0.38007113
-0.44951108 4.9421282 1.0506055 0.3713434
-0.35378188 4.9405761 1.0476463 0.37154338
-0.24951312 4.9391046 1.0509626 0.36436367
-0.14685652 4.9376712 1.04844 0.36375278
-0.046389129 4.9365015 1.0479447 0.35848808
0.053869601 4.9359956 1.049942 0.36452651
0.15347397 4.9350681 1.050266 0.37417102
0.25325474 4.9343882 1.0510235 0.3888981
0.34345809 4.9327326 1.0491782 0.36393106
0.44886547 4.9301033 1.0492345 0.30217585
0.55567652 4.9255004 1.0525295 0.27831179
0.606475 4.9191751 1.0373499 0.13275
2.3746541 4.919971 1.0478793 0.47329164
2.4484739 4.9237266 1.0515045 0.57417816
2.5144269 4.9233828 1.0466224 0.52079189
3.4744897 4.9137635 1.0482894 0.42310524
3.5532572 4.9142056 1.0507568 0.4337216
3.6393752 4.9121623 1.051296 0.46829128
-1.7254667 5.0501332 1.0646334 0.29233333
-2.3692501 5.22895 1.07365 0.0044999998
-3.4617 -3.4305604 1.15574 0.14184
-3.3554249 -3.4315751 1.15045 0.15450001
-3.2466469 -3.4315739 1.1377894 0.31885791
-3.1536539 -3.4318616 1.146723 0.25746924
-3.0594401 -3.4329801 1.1571801 0.18715999
-2.9410079 -3.4333382 1.1508384 0.18969232
-2.8525825 -3.4333589 1.1483412 0.20675884
-2.7490849 -3.4333191 1.1503445 0.22104074
-2.645396 -3.4332173 1.1485131 0.23236954
-2.5458775 -3.4334252 1.1505529 0.23405832
-2.4340847 -3.4344642 1.1494743 0.3320179
-2.3439572 -3.4347506 1.1495507 0.36429045
-2.2458463 -3.4357011 1.1485832 0.38820919
-2.1491547 -3.4361491 1.148594 0.38924757
-2.0556366 -3.4361351 1.1500134 0.37341866
-1.9465523 -3.4361019 1.1509079 0.36175123
-1.8445681 -3.4361925 1.1511917 0.37385267
-1.7514687 -3.4361424 1.1499523 0.38491917
-1.651601 -3.4362204 1.1499577 0.37695053
-1.5488827 -3.4365289 1.1480308 0.38081613
-1.4515915 -3.4374909 1.1493359 0.37697998
-1.3518412 -3.4383509 1.1499289 0.37247515
-1.2518958 -3.4385612 1.1500127 0.399378
-1.1457355 -3.4390202 1.1501614 0.42369574
-1.0594999 -3.4394608 1.1517359 0.45524287
2.0695 -3.4047 1.1084 0.229
2.1475999 -3.4423499 1.13785 0.082499996
2.2553 -3.4435 1.1054 0.073200002
2.3611 -3.4277 1.127 0.065399997
3.1595271 -3.4465907 1.1409726 0.20857272
3.2285614 -3.4505153 1.1300154 0.26906154
3.3622 -3.4651 1.1049 0.21259999
-3.2575774 -3.3400223 1.1458291 0.22890319
-1.0239313 -3.3484073 1.1498369 0.24297898
-0.95093352 -3.3455973 1.149655 0.1823718
-0.84981465 -3.3450742 1.1500254 0.2021105
-0.7598331 -3.3428965 1.1462423 0.20174588
-0.65032291 -3.3426774 1.1489609 0.2501713
-0.54997379 -3.3434234 1.1508167 0.24883215
-0.45137054 -3.3431532 1.150001 0.25876477
-0.34821153 -3.3406 1.1505949 0.22674873
-0.25066149 -3.3371565 1.1493629 0.22561322
-0.14923513 -3.3371871 1.1489849 0.26905641
-0.052390914 -3.3384783 1.150717 0.24182595
0.049514297 -3.3408127 1.1487429 0.2333169
0.15129805 -3.3417847 1.1492409 0.24155641
0.24839999 -3.3406692 1.1490566 0.33296528
0.34889409 -3.3397696 1.1503671 0.30162308
0.45061719 -3.3420277 1.150391 0.24765049
0.55551964 -3.3397858 1.1495488 0.24163717
0.6516639 -3.3399253 1.1497483 0.32448092
0.74900061 -3.3379626 1.1488837 0.35195583
0.84905827 -3.335655 1.1500593 0.28859362
0.94720185 -3.3381355 1.149794 0.24915935
1.0520854 -3.3407876 1.1499707 0.27412328
1.1507022 -3.3401251 1.1481291 0.30629531
1.2479138 -3.3370636 1.1497799 0.30520424
1.3479694 -3.3361716 1.149321 0.2540642
1.4516677 -3.3414152 1.1517022 0.29679999
1.54909 -3.3473921 1.1512903 0.32224882
1.6485515 -3.348305 1.151293 0.26519665
1.7522039 -3.3456891 1.1512102 0.25730681
1.8563308 -3.3428421 1.1481347 0.26886672
1.9469107 -3.3415794 1.150143 0.20049648
2.0490859 -3.3332357 1.1437724 0.11578137
2.1470258 -3.3355849 1.1506602 0.075461321
2.2472873 -3.3341732 1.1504363 0.068761542
2.3514109 -3.3358912 1.147956 0.06703978
2.4542313 -3.3385479 1.149568 0.065556251
2.5524001 -3.3385088 1.1496419 0.058239512
2.6510878 -3.3370843 1.1474123 0.050656945
2.7518046 -3.3399754 1.1492984 0.05443871
2.8479049 -3.3397412 1.1504031 0.050092317
2.9497945 -3.3389218 1.1510947 0.058000006
3.026587 -3.3418307 1.1493521 0.054313049
3.1418915 -3.3889167 1.1805917 0.041133333
3.2206144 -3.3484299 1.149393 0.46212816
-3.255281 -3.2480783 1.1520214 0.25061893
2.0680335 -3.2951164 1.1437 0.062616669
2.1358001 -3.2924001 1.1434001 0.072900005
2.2690001 -3.29795 1.1424501 0.063950002
2.3474 -3.2989001 1.1394 0.041500002
2.5969 -3.299 1.1397001 0.057399999
2.6545999 -3.2995 1.13995 0.035049997
2.7188001 -3.2995999 1.142 0.0579
2.8294499 -3.29685 1.1408501 0.049549997
2.9099 -3.2997999 1.1363 0.0261
3.2216127 -3.2494187 1.1493621 0.49349493
-3.2557032 -3.1461971 1.1465156 0.15765311
-2.9844 -3.1524 1.1529 0.0583
-2.7477858 -3.1131287 1.1581572 0.093385719
-2.3870001 -3.1125002 1.1436501 0.1051
3.2208505 -3.1483672 1.1497954 0.49101046
-3.2564521 -3.0445347 1.1527703 0.1572575
-3.1275332 -3.0600998 1.1466666 0.030933334
-3.0256541 -3.0177822 1.1525071 0.069492854
-2.9534211 -3.0223846 1.1497931 0.096059315
-2.8805232 -3.0152154 1.1653078 0.069938466
-2.7080503 -3.0407128 1.1425124 0.058662504
-2.6492758 -3.0132101 1.1505855 0.10285713
-2.5426567 -3.0142355 1.1474549 0.11829525
-2.4515374 -3.0083325 1.1481055 0.067156762
-2.3781908 -3.0193672 1.1514093 0.090030223
3.2197647 -3.0446525 1.1497091 0.51184541
-4.3675542 -2.951041 1.1492952 0.28154442
-4.253253 -2.9672775 1.1540972 0.20945555
-4.1522999 -2.9657505 1.1463705 0.22021767
-4.0525627 -2.9644201 1.1505525 0.21760002
-3.9471602 -2.9629602 1.1531837 0.2332814
-3.8517904 -2.9615314 1.1506456 0.23599145
-3.7569604 -2.9608281 1.1466442 0.24376978
-3.6528368 -2.9602304 1.1473234 0.24391276
-3.5494745 -2.9595394 1.1499903 0.2394726
-3.4533975 -2.9592481 1.1498201 0.24856801
-3.3539176 -2.9587855 1.1493 0.2479618
-3.2679391 -2.9661434 1.1500261 0.23244126
-2.8327277 -2.9685576 1.1496696 0.10571212
-2.7408407 -2.9605842 1.1504773 0.10204383
-2.6957304 -2.99101 1.1544501 0.10708
-2.560766 -2.9958346 1.1490812 0.091328114
-2.4567728 -2.9966455 1.1495969 0.073833346
-2.3966424 -2.9950366 1.1493946 0.083810523
3.218977 -2.9438481 1.150214 0.52296942
-4.380806 -2.8552146 1.148598 0.35382441
3.2180579 -2.8451164 1.1496987 0.5451296
3.5673001 -2.8178999 1.1968 0.1365
-4.3489017 -2.7517021 1.1538756 0.28541836
-4.2992001 -2.7602999 1.1116 0.2034
3.2171888 -2.745832 1.1516801 0.53485686
-4.3411489 -2.6579399 1.1489046 0.29947442
3.2164698 -2.6476388 1.14995 0.55480772
-4.3259082 -2.5486114 1.1527529 0.28686416
3.2159381 -2.5495858 1.1502894 0.54781693
-4.3240786 -2.4494441 1.1522019 0.29221091
3.2150943 -2.449321 1.1497282 0.54282004
3.62304 -2.4539001 1.15492 0.21311998
-4.3227415 -2.3483181 1.1500347 0.30208728
3.2143455 -2.35079 1.1504251 0.5485028
3.6251771 -2.3442154 1.1362462 0.4134154
-4.3210964 -2.2481432 1.1501815 0.31838611
3.2133839 -2.2503915 1.1504493 0.53977883
3.4922001 -2.24755 1.1828001 0.185275
3.5575819 -2.2466819 1.1737819 0.098572731
3.6213915 -2.2659833 1.128075 0.29802498
-4.3195925 -2.1514111 1.1489711 0.3123177
3.2228463 -2.1758773 1.1492414 0.39881378
3.4926043 -2.1529965 1.1593852 0.023762962
3.5095375 -2.1161427 1.1462476 0.021804763
-4.3181052 -2.0522249 1.1493335 0.32682082
3.5317743 -2.0483661 1.1485207 0.024633735
-4.3164954 -1.9533268 1.1483659 0.32432538
-1.0387 -1.9704 1.1011 0.022
3.4990251 -1.94495 1.171025 0.031225001
3.5280204 -1.9492705 1.1494166 0.025247503
-4.3149562 -1.8553039 1.1513106 0.33607617
-1.1089 -1.8191 1.1052001 0.033399999
-1.074 -1.8936 1.102 0.0276
3.4820712 -1.817346 1.1522042 0.026962498
3.5327866 -1.8482723 1.1509167 0.027807232
3.6065671 -1.8840667 1.1573167 0.0255
-4.3133092 -1.7502023 1.150411 0.35892224
3.4737597 -1.7506142 1.1487427 0.02255238
3.5368817 -1.7512029 1.1515144 0.030346382
-4.3126025 -1.6451768 1.1501698 0.3493512
-1.1579956 -1.6731342 1.1497002 0.19437167
3.4908748 -1.6926 1.1576 0.016425001
3.5535667 -1.6543574 1.1499296 0.027001055
3.6206441 -1.6363387 1.1470556 0.017111111
-4.3324676 -1.551821 1.1493129 0.38335001
3.5820374 -1.5483114 1.1515735 0.023868358
3.6186364 -1.5530769 1.1471893 0.027074466
-4.3528204 -1.4494594 1.1535363 0.40672621
-1.1439781 -1.4223505 1.1425638 0.17580721
3.4947569 -1.4086857 1.1659858 0.027485713
3.5587785 -1.4510661 1.1504927 0.02201312
3.6070001 -1.4438 1.1026 0.0288
-4.3701062 -1.3530277 1.1489844 0.47831002
3.4814703 -1.3501449 1.1538423 0.024269702
3.5095825 -1.3611609 1.1357826 0.025526091
-4.3754878 -1.2511413 1.1518728 0.49437383
3.4837265 -1.27812 1.14744 0.0144
3.5450375 -1.2349875 1.1615 0.015662501
-4.3754735 -1.1452986 1.1493893 0.5317772
2.44595 -1.1136171 1.150624 0.22991893
2.5473342 -1.1178197 1.1510372 0.28240004
2.6483727 -1.1177887 1.1482242 0.27833384
2.7569108 -1.1175393 1.1508285 0.27027145
2.8547916 -1.1174959 1.1470877 0.26080406
2.9460745 -1.1172045 1.1527047 0.25450909
3.0480294 -1.1172388 1.1460592 0.23930913
3.1528239 -1.1169785 1.1545453 0.23065951
3.2582197 -1.1171139 1.1489249 0.2216361
3.3601143 -1.1168115 1.1486485 0.19136284
3.4007001 -1.1144 1.196 0.1116
3.5864186 -1.1660906 1.1480349 0.022381393
-4.3752871 -1.0490459 1.1506424 0.53331006
2.3948438 -1.0524704 1.1507202 0.23648314
2.4066191 -1.0571364 1.1502076 0.22484425
3.5936816 -1.0313728 1.1469364 0.0217
3.6242609 -1.0653955 1.1504953 0.022169767
-4.3750215 -0.95563245 1.1486551 0.53508133
-3.0190001 -0.91647995 1.1182801 0.21658
2.4094801 -0.94890821 1.1495563 0.32694629
-4.3743014 -0.85120732 1.1493238 0.54906601
-3.0124948 -0.85064739 1.1198895 0.31584212
2.4247921 -0.84771824 1.1503984 0.3313604
-4.3732085 -0.7508083 1.1485671 0.57493186
-3.0102394 -0.75392169 1.1169392 0.28410873
2.4397209 -0.74987644 1.1501529 0.33034438
-4.3669834 -0.64941168 1.1490394 0.5317353
-3.0077126 -0.65748751 1.1187125 0.25373125
2.4550495 -0.6502682 1.1500183 0.31821942
-4.3540893 -0.5503158 1.1497883 0.50933474
-3.0052133 -0.54292601 1.1163696 0.2465522
2.4702733 -0.55088711 1.1497756 0.315707
-4.3534684 -0.45459905 1.151865 0.53702462
-3.0034716 -0.44531432 1.1166428 0.25548574
2.4858863 -0.4498108 1.1493649 0.31035814
-4.352726 -0.3509219 1.1488764 0.50777215
-3.0011935 -0.36718124 1.1170502 0.28169376
-2.9996569 -0.317 1.1178 0.20498572
2.4964409 -0.37946916 1.1519371 0.28280389
2.5046396 -0.32795843 1.1489906 0.29837742
-4.3520188 -0.24373695 1.1503822 0.52158791
-2.9977915 -0.24738692 1.1185131 0.25602171
2.5168581 -0.24824135 1.1495444 0.27934998
-4.3512664 -0.14729369 1.1487033 0.5126484
-3.0088 -0.1715 1.1343 0.025900001
-2.9952667 -0.14530417 1.1183292 0.22877085
2.5326967 -0.14878491 1.1501226 0.24278109
-4.3499165 -0.051349513 1.1518203 0.49558547
-3.0048001 -0.071500003 1.1352 0.026900001
-2.9923003 -0.045188237 1.1150353 0.20943528
